# X Y Z
3.461092074184581868e+00 1.718480950722421019e+00 -1.310479556900308262e+00
3.456305076285191458e+00 1.689768161473058639e+00 -1.304518439129688012e+00
3.472562757718605564e+00 1.671387104968366177e+00 -1.306836651596040344e+00
3.475927742038654955e+00 1.646823651811367695e+00 -1.304187265920209171e+00
3.462010430483716927e+00 1.614324935995761434e+00 -1.294914416054800066e+00
3.470992552857248281e+00 1.592659456610687307e+00 -1.294583242845321225e+00
3.487687262085876760e+00 1.548799010006134402e+00 -1.293589723216884702e+00
3.507506045641220815e+00 1.531890612010785135e+00 -1.297563801730631239e+00
3.523778675204210398e+00 1.513311469818540145e+00 -1.300213187406462412e+00
3.533867502496260027e+00 1.492027571919955831e+00 -1.300544360615941253e+00
3.542955887513859814e+00 1.470316081561849897e+00 -1.300544360615941253e+00
3.549288630822782231e+00 1.447483065685337023e+00 -1.299550840987504730e+00
3.562484645504230496e+00 1.427427890011047973e+00 -1.301206707034899157e+00
3.568540978111268913e+00 1.404508114625529602e+00 -1.300213187406462412e+00
3.589037917632868169e+00 1.361946196600429149e+00 -1.301537880244377998e+00
3.592019655850960280e+00 1.337928175319597957e+00 -1.299550840987504730e+00
3.616119713621983145e+00 1.321676343156527489e+00 -1.305511958758124758e+00
3.601947857870803293e+00 1.291525113319014428e+00 -1.297232628521152398e+00
3.606242825022324183e+00 1.268151374924920693e+00 -1.295907935683236811e+00
3.622879840629963599e+00 1.249066038516898791e+00 -1.299219667778025888e+00
3.627793071166461214e+00 1.225909588250452043e+00 -1.298226148149589143e+00
3.638831068601717345e+00 1.204809306285671289e+00 -1.299550840987504730e+00
3.639870122895658699e+00 1.180428302611092439e+00 -1.297232628521152398e+00
3.665799297054330275e+00 1.139300719896564118e+00 -1.301537880244377998e+00
3.670011764222389061e+00 1.115965703342976179e+00 -1.300544360615941253e+00
3.674980695852099633e+00 1.092889920445375251e+00 -1.299882014196983571e+00
3.670827904895977323e+00 1.018526457532693330e+00 -1.291271510750532370e+00
3.661521129239901917e+00 9.918062714627111642e-01 -1.285641566189391183e+00
3.641075185276248849e+00 9.623572970445438690e-01 -1.276037543114503237e+00
3.648087705416154236e+00 8.927177967202429842e-01 -1.272394637810235318e+00
3.665204116799403611e+00 8.493670783857687479e-01 -1.274712850276587650e+00
3.681395431020948017e+00 8.293383292249935090e-01 -1.278686928790334409e+00
3.672585254335218874e+00 8.037232625900792016e-01 -1.273719330648150905e+00
3.682986797620670494e+00 7.823439425841763883e-01 -1.275706369905024395e+00
3.682171636207980381e+00 7.585944731504244976e-01 -1.273719330648150905e+00
3.675650827385999797e+00 7.337821971543816435e-01 -1.269745252134404367e+00
3.681010658830523141e+00 7.113930500702245752e-01 -1.270076425343883209e+00
3.712209591246284468e+00 6.937914543795830058e-01 -1.279680448418771155e+00
3.691320845771162151e+00 6.665011225867010225e-01 -1.270738771762840891e+00
3.718584473724600770e+00 6.478627922164389430e-01 -1.279018101999813251e+00
3.722489683784278025e+00 6.250337909935521630e-01 -1.279018101999813251e+00
3.740229445757432991e+00 6.044241765469334782e-01 -1.283985700141996755e+00
3.681333867130048176e+00 1.834788296035026467e-01 -1.247887820308797302e+00
3.707843692876737318e+00 1.619710520460287129e-01 -1.256829496964727344e+00
3.708767729458915863e+00 1.392171017901598085e-01 -1.256829496964727344e+00
3.716154093747293441e+00 1.166579242844053010e-01 -1.259147709431079676e+00
3.700763925923070907e+00 9.346647444111921832e-02 -1.253517764869938489e+00
3.669191586055682297e+00 7.017933735340371737e-02 -1.242257875747656115e+00
3.678988160922534778e+00 4.777636535028656484e-02 -1.245569607842444970e+00
3.666087450688932936e+00 2.631111355138896803e-03 -1.240933182909740529e+00
3.664147482083985441e+00 -1.985130754956246704e-02 -1.240270836490782846e+00
3.663013205899758429e+00 -4.232177057648180835e-02 -1.239939663281303783e+00
3.650420327245680774e+00 -6.456619971586279039e-02 -1.235634411558078183e+00
3.641465948716368306e+00 -8.675180119493432207e-02 -1.232653852672768169e+00
3.626718382415085262e+00 -1.086540703442828437e-01 -1.227686254530584886e+00
3.413564802288767019e+00 -9.644654613469964000e-01 -1.199205358515400111e+00
3.369814849568226744e+00 -9.968775529728005624e-01 -1.187614296183638674e+00
3.363634688081625246e+00 -1.017535582240542302e+00 -1.187614296183638674e+00
3.357327887650150444e+00 -1.038155301868727509e+00 -1.187614296183638674e+00
3.358989276596604956e+00 -1.061303788198273423e+00 -1.190594855068948688e+00
3.353311638333877465e+00 -1.082185010393163838e+00 -1.190926028278427751e+00
3.349295840752210207e+00 -1.103629169434639623e+00 -1.191919547906864274e+00
3.349613008800004010e+00 -1.126573875812083791e+00 -1.194568933582695447e+00
3.338176795554923082e+00 -1.145568990486897087e+00 -1.192913067535301019e+00
2.534350407872364652e+00 -2.293318803161684016e+00 -1.153834628816791552e+00
2.482521043124453541e+00 -2.302402651244689125e+00 -1.142574739694509178e+00
2.467659930057072515e+00 -2.316945077668454811e+00 -1.142243566485030337e+00
2.432250484021959647e+00 -2.340501825519568868e+00 -1.138931834390241482e+00
2.420543981539649003e+00 -2.358018702715628301e+00 -1.140256527228157069e+00
2.402003731049751956e+00 -2.368846321288217371e+00 -1.138269487971283578e+00
2.396760743589318565e+00 -2.392884679905204592e+00 -1.142905912903988241e+00
2.372753476261760586e+00 -2.398144232264894260e+00 -1.138269487971283578e+00
2.349430952589228738e+00 -2.403875218544396120e+00 -1.133964236248057977e+00
2.320236860623846820e+00 -2.403293947054367052e+00 -1.126678425639522363e+00
2.311300100491567200e+00 -2.423638110745417684e+00 -1.129658984524832377e+00
2.293800809410790897e+00 -2.435023913541609186e+00 -1.128334291686916790e+00
2.281384295978072352e+00 -2.451818822926070229e+00 -1.129658984524832377e+00
2.262525912218735336e+00 -2.492219284619528796e+00 -1.135620102295452405e+00
2.248449520719335570e+00 -2.507461489817492950e+00 -1.136282448714410309e+00
2.197656766459286981e+00 -2.512114916461507530e+00 -1.125684906011085618e+00
2.170496709246531264e+00 -2.511972486404431493e+00 -1.119392615030986748e+00
2.141586671258647545e+00 -2.509436381475901090e+00 -1.112106804422451134e+00
2.107325031452675912e+00 -2.500140622361222142e+00 -1.101840434928605283e+00
2.078879014310957896e+00 -2.528730984048467967e+00 -1.103165127766520870e+00
2.070084813430478565e+00 -2.582054262831976033e+00 -1.115749709726718830e+00
2.065898189880830849e+00 -2.609517733024488084e+00 -1.122373173916296762e+00
2.050413549664249935e+00 -2.656354378757511014e+00 -1.131977196991184709e+00
2.034075867153293249e+00 -2.668885474660823043e+00 -1.131977196991184709e+00
2.008598764829614414e+00 -2.669241818807489341e+00 -1.126678425639522363e+00
1.997800656796069774e+00 -2.689097133262551953e+00 -1.129990157734311218e+00
1.970677700891536377e+00 -2.686835602720771821e+00 -1.123697866754212349e+00
1.946972758106854551e+00 -2.688932653766670899e+00 -1.119392615030986748e+00
1.938653180398298037e+00 -2.712353166591828124e+00 -1.124360213173170031e+00
1.898224982954511031e+00 -2.725864459557088448e+00 -1.120054961449944431e+00
1.883597667389120156e+00 -2.740573504570014141e+00 -1.121379654287860017e+00
1.839346558048129410e+00 -2.747786674023323883e+00 -1.114756190098282307e+00
1.824009089482575563e+00 -2.761384832378352527e+00 -1.115749709726718830e+00
1.791004060694434630e+00 -2.785148834765768022e+00 -1.116412056145676734e+00
1.769340542142977757e+00 -2.788909409716621823e+00 -1.113431497260366720e+00
1.751695215877547396e+00 -2.798912921609606919e+00 -1.113100324050887657e+00
1.730531061261169956e+00 -2.803180372484104677e+00 -1.110450938375056706e+00
1.710360100871533895e+00 -2.808906776523464099e+00 -1.108463899118183216e+00
1.691638453686394872e+00 -2.816919919736788458e+00 -1.107470379489746470e+00
1.670004132951371290e+00 -2.819934300332861632e+00 -1.104489820604436456e+00
1.645139071510961504e+00 -2.857399854627050040e+00 -1.111444458003493230e+00
1.619209719331359265e+00 -2.852659378760656228e+00 -1.105483340232873202e+00
1.598917364415817444e+00 -2.857596921494649056e+00 -1.103496300975999933e+00
1.579989431728891169e+00 -2.864873464417984295e+00 -1.102502781347563188e+00
1.554288937225930312e+00 -2.859581616061479981e+00 -1.096541663576943160e+00
1.538047022200470959e+00 -2.871561709982883404e+00 -1.097535183205379683e+00
1.528306861322570098e+00 -2.895975663157491553e+00 -1.103496300975999933e+00
1.513548269704231730e+00 -2.911162706610670003e+00 -1.105814513442352043e+00
1.535131956332419723e+00 -2.997708832890174424e+00 -1.136282448714410309e+00
1.489155393826741447e+00 -2.952277693507232126e+00 -1.114756190098282307e+00
1.476455993415563217e+00 -2.972351831048933413e+00 -1.119061441821507907e+00
1.458603723665817364e+00 -2.982203365736665113e+00 -1.119392615030986748e+00
1.419861794554795331e+00 -2.948564744533276993e+00 -1.102833954557042029e+00
1.365668169214263594e+00 -2.927264935784842148e+00 -1.087931160130491959e+00
1.345718133319700360e+00 -2.931299323944960289e+00 -1.086275294083097309e+00
1.327319364602552509e+00 -2.938640903691293271e+00 -1.085944120873618468e+00
1.310409320855044690e+00 -2.949318176034243955e+00 -1.086937640502055213e+00
9.947482308242988625e-01 -3.065240027615455443e+00 -1.085281774454660786e+00
9.813291450138544869e-01 -3.088378818864230713e+00 -1.091574065434759655e+00
9.643143316258816489e-01 -3.100651468829285662e+00 -1.093892277901111987e+00
9.275319731005621238e-01 -3.116775161376501124e+00 -1.095548143948506414e+00
8.830493666499401595e-01 -3.106132402375569423e+00 -1.087599986921012896e+00
8.634712633393867298e-01 -3.109673241525036325e+00 -1.086937640502055213e+00
8.431458136050405949e-01 -3.110357793988396402e+00 -1.085281774454660786e+00
8.254858965658488090e-01 -3.120947713851609517e+00 -1.087268813711534055e+00
8.089003208048648474e-01 -3.136007615064005272e+00 -1.090911719015801973e+00
1.601470560274074195e-01 -3.202568496754553795e+00 -1.079651829893519599e+00
1.401321449794385721e-01 -3.195006412876211677e+00 -1.076671271008209585e+00
1.017140065491526080e-01 -3.222893314611611881e+00 -1.085944120873618468e+00
6.169755484687819425e-02 -3.198426568541258064e+00 -1.077002444217688426e+00
2.242161862845728007e-02 -3.195168639139770228e+00 -1.075677751379772840e+00
2.804153093713955200e-03 -3.225440304459387342e+00 -1.086275294083097309e+00
1.916339917490299305e+00 3.213912207411798061e+00 -1.349564932781165849e+00
1.943290222104870235e+00 3.214122827657853065e+00 -1.354808233412474916e+00
2.019590700563179464e+00 3.205560825277965709e+00 -1.367042601552196146e+00
2.071062004136453361e+00 3.156873319444463810e+00 -1.362148854296307610e+00
2.100228515038852883e+00 3.117230251608874347e+00 -1.355856893538736729e+00
2.127137341202480769e+00 3.075036597082139167e+00 -1.348516272654904036e+00
2.149533901756136789e+00 3.027305262441209788e+00 -1.338728778143127185e+00
2.155492808086235890e+00 2.996560085086255043e+00 -1.330689050508453208e+00
2.200443959581568354e+00 2.981194055427773382e+00 -1.335932351139762275e+00
2.277739428442941527e+00 2.969933663997411433e+00 -1.349914486156586602e+00
2.309382060822684490e+00 2.935865527946508013e+00 -1.347118059153221692e+00
2.324435478878046357e+00 2.917974778207343078e+00 -1.345370292276118596e+00
2.338180532084445318e+00 2.898551003227129108e+00 -1.342923418648174438e+00
2.484565548271620017e+00 2.753941243460506172e+00 -1.337330564641444841e+00
2.543155751517176988e+00 2.716637259275860750e+00 -1.341874758521912625e+00
2.563642006436366749e+00 2.705063497656466698e+00 -1.343972078774436252e+00
2.594455512314497891e+00 2.704162048025144927e+00 -1.351662253033689476e+00
2.707617690021564716e+00 2.654143817878066081e+00 -1.368091261678457959e+00
2.734917694076289152e+00 2.490208355201085855e+00 -1.333485477511818118e+00
2.788376601452087655e+00 2.477002894065270411e+00 -1.345020738900698065e+00
2.874045622889776830e+00 2.369710327384878745e+00 -1.343272972023594969e+00
2.873713623672682793e+00 2.310765739995735313e+00 -1.329290837006770865e+00
2.950668102074800014e+00 2.170798087148203770e+00 -1.320202449245835075e+00
2.984696955731002799e+00 2.139887872192314244e+00 -1.323697983000041045e+00
3.068372999092956022e+00 2.060391915575803257e+00 -1.332436817385556305e+00
3.075492033310042839e+00 2.037900926058117346e+00 -1.329989943757611925e+00
3.091858228389303243e+00 2.021556996170003728e+00 -1.331737710634715022e+00
3.099193896973240658e+00 1.945857434267286523e+00 -1.318804235744152731e+00
3.102393463592560519e+00 1.869127478288331590e+00 -1.304822100727328404e+00
3.106556473150821063e+00 1.845746041613719024e+00 -1.301676120348542964e+00
3.137219679439712028e+00 1.838025217044654935e+00 -1.310065401358637471e+00
3.249406672888532910e+00 1.798162259845006439e+00 -1.339078331518547715e+00
3.277648005324243830e+00 1.787618602394933864e+00 -1.346418952402380409e+00
3.294330496237777961e+00 1.770581026817737103e+00 -1.348865826030324788e+00
3.277602254680128446e+00 1.534748623885167307e+00 -1.303773440601066591e+00
3.303972583661810347e+00 1.522458274828151659e+00 -1.310764508109478754e+00
3.353242361040406738e+00 1.446488391647346550e+00 -1.316007808740787821e+00
3.359362589560941359e+00 1.376342650844628368e+00 -1.307968081106113845e+00
3.365546092934044164e+00 1.330875416685598722e+00 -1.303773440601066591e+00
3.536217914060788559e+00 6.667242850022672140e-01 -1.296083266341813367e+00
3.498871453993997349e+00 4.396002433414474830e-01 -1.269167656434426750e+00
3.501280083012708211e+00 2.662457747296148036e-01 -1.263574802427697152e+00
3.552557196992056632e+00 1.171006239990081549e-01 -1.279654257697044883e+00
3.454227775282164181e+00 7.798683189926896089e-03 -1.242252046527040354e+00
2.700631862668311012e+00 -1.819804221435752822e+00 -1.168496284313292666e+00
2.671282526257489742e+00 -1.872430099056967334e+00 -1.170593604565816293e+00
2.637452283354486671e+00 -1.897415004191602250e+00 -1.165699857309927756e+00
2.615155981658408457e+00 -1.905842326462287684e+00 -1.160806110054039442e+00
2.516974595184075181e+00 -1.955295637167767886e+00 -1.142629334532167862e+00
2.514782872140213232e+00 -2.003539001340658654e+00 -1.153115935794785996e+00
2.529929373357932665e+00 -2.066830402787856791e+00 -1.172341371442919389e+00
2.456143695005486016e+00 -2.135475842411328706e+00 -1.167797177562451383e+00
2.392923419529751072e+00 -2.212991627736760059e+00 -1.169544944439554479e+00
2.286487115055968022e+00 -2.248582754830949160e+00 -1.149969955416000555e+00
2.244856460361977835e+00 -2.262512235083037559e+00 -1.142629334532167862e+00
2.216270894457626373e+00 -2.289216903954084614e+00 -1.142279781156747331e+00
1.822517857937207220e+00 -2.542439656927482972e+00 -1.120607471880669781e+00
1.666320584347339429e+00 -2.618613289293178603e+00 -1.111519084119733991e+00
1.635763973550375727e+00 -2.605783689559428851e+00 -1.101382036232536610e+00
1.487627523091327841e+00 -2.688819486862224384e+00 -1.099983822730854044e+00
3.314276388532823026e-01 -1.762187885940519116e+00 -6.224939119063080950e-01
3.204404710045523630e-01 -1.763266647149044353e+00 -6.221443585308874535e-01
3.114048148730009236e-01 -1.775349158123180837e+00 -6.259894456605141766e-01
2.871734405979207705e-01 -1.764243126688187724e+00 -6.203965916537844683e-01
3.032070285117980935e-01 -3.010837060096731577e+00 -1.082506153959823969e+00
2.681438736186350091e-01 -3.035795673456124000e+00 -1.090545881594497724e+00
1.006742395186560474e-01 -3.060950416075841840e+00 -1.096138735601227543e+00
8.245263315267428728e-02 -3.082115020971206487e+00 -1.103828909860480767e+00
6.328224373207042008e-02 -3.070385725766580087e+00 -1.099284715980012983e+00
4.414653068737815073e-02 -3.051043185178839767e+00 -1.091944095096180289e+00
1.103485708686256783e-01 3.562033041676988532e+00 -1.409148332703342499e+00
1.821097956200950496e-01 3.282844414014800982e+00 -1.296407327830570777e+00
5.560207883522606531e-01 3.449795436961756945e+00 -1.380773918725296090e+00
1.152066232751344677e+00 3.156418128922256372e+00 -1.325916718367739389e+00
1.175944752100407609e+00 3.161430617408909960e+00 -1.331213275643641225e+00
1.199927987537352525e+00 3.166268454477224825e+00 -1.336509832919543284e+00
1.314972456424162051e+00 3.172415258855535214e+00 -1.356182759944322358e+00
1.344513107952530317e+00 3.188157070610642574e+00 -1.366775874496126475e+00
1.387246886273388435e+00 3.179897875969068366e+00 -1.370559129693199152e+00
1.428453794075030148e+00 3.167695139245183533e+00 -1.372829082811442891e+00
1.448636893509456014e+00 3.160552752552001632e+00 -1.373585733850857471e+00
1.465651358037517893e+00 3.146572702285966194e+00 -1.371315780732613732e+00
2.264520136982017817e+00 2.497389080952539420e+00 -1.330456624604226645e+00
2.276667089662070431e+00 2.480041488602226174e+00 -1.328564997005690307e+00
2.281745647090497986e+00 2.455188793594829111e+00 -1.322511788690373669e+00
2.295497182128910740e+00 2.439795235843584820e+00 -1.321755137650959089e+00
2.307867258295581259e+00 2.422986417742123866e+00 -1.320241835572129929e+00
2.345843724778434058e+00 2.403083701546102180e+00 -1.325160067328324809e+00
2.357287267327361491e+00 2.385356557973674185e+00 -1.323268439729788248e+00
2.390998187392669561e+00 2.360796407384575968e+00 -1.325916718367739389e+00
2.404111826786232697e+00 2.344790050734913311e+00 -1.325160067328324809e+00
2.445513979684278194e+00 2.298874580382749944e+00 -1.324403416288910229e+00
2.471118348492280514e+00 2.294519533899304520e+00 -1.330834950123934046e+00
2.512103339899188548e+00 2.220328386205165039e+00 -1.322890114210081070e+00
2.518000844197088472e+00 2.198185612590690230e+00 -1.318728533493300770e+00
2.536353838468029309e+00 2.186919369936418889e+00 -1.321376812131251910e+00
2.574931635412713415e+00 2.112291280325129250e+00 -1.313810301737106112e+00
2.565205391027834736e+00 2.052242525758815717e+00 -1.295272351271449018e+00
2.575568220373847694e+00 2.034745317466074344e+00 -1.294137374712327038e+00
2.609152269973954663e+00 2.009753420333837859e+00 -1.298677280948814516e+00
2.671753735910621597e+00 1.980649269110404509e+00 -1.311918674138569552e+00
2.692828436219052879e+00 1.970767700290842583e+00 -1.316458580375057030e+00
2.738684853342468362e+00 1.953134340288676496e+00 -1.327430020446568548e+00
2.750617505390372752e+00 1.936293318736183267e+00 -1.327430020446568548e+00
2.765489926672229704e+00 1.921488441380221346e+00 -1.328943322525397486e+00
2.761182785575586607e+00 1.893509303225901386e+00 -1.320998486611544509e+00
2.768145691018315535e+00 1.873424050255225071e+00 -1.318728533493300770e+00
2.774966245159610434e+00 1.853324756658793815e+00 -1.316458580375057030e+00
2.720500568650816575e+00 1.698829943940984855e+00 -1.263493007616036889e+00
2.787069283798357056e+00 1.669830231479229044e+00 -1.280517656002864824e+00
2.967466056272039410e+00 1.680116983820183707e+00 -1.346346296431932821e+00
2.951836026689137693e+00 1.647472602111161200e+00 -1.334239879801299544e+00
2.927445080872737027e+00 1.540982102276780230e+00 -1.304730489264131155e+00
2.945068027786681419e+00 1.527241873624240354e+00 -1.308513744461204054e+00
2.952733828246572045e+00 1.508302383773984623e+00 -1.307757093421789474e+00
2.956140991427970821e+00 1.487251342851073188e+00 -1.305108814783838556e+00
2.963551020543111925e+00 1.468264971485431447e+00 -1.304352163744423976e+00
2.926914384764047306e+00 1.318385446650279569e+00 -1.264627984175158648e+00
2.960352693401898883e+00 1.311618475635851766e+00 -1.275977749766377345e+00
2.975986593556680049e+00 1.296747692967783916e+00 -1.279382679443742843e+00
2.966009487182549975e+00 1.270829845303437455e+00 -1.271437843529889866e+00
2.991675596200627840e+00 1.260130116830789682e+00 -1.279382679443742843e+00
2.994046027358579387e+00 1.218106511398527436e+00 -1.273707796648133606e+00
2.985984066011255322e+00 1.193547815803847723e+00 -1.266897937293402387e+00
2.983123400854656548e+00 1.150177304541912138e+00 -1.259331426899256590e+00
2.995321469234967005e+00 1.133811107649206784e+00 -1.261601380017500329e+00
3.058948211857336563e+00 1.072780753711297663e+00 -1.277491051845206504e+00
3.045330710458002077e+00 1.047094192213894326e+00 -1.268789564891938948e+00
3.058718864018117323e+00 1.030744610723376420e+00 -1.271816169049597045e+00
3.078186384152818533e+00 9.954014082746590608e-01 -1.274842773207255364e+00
3.098361721129357704e+00 9.809478769586865710e-01 -1.280895981522572002e+00
3.106091462052257057e+00 9.624639515767059450e-01 -1.281652632561986582e+00
3.130985848067535215e+00 9.282048120362711430e-01 -1.287327515357596042e+00
3.131285778526924357e+00 9.074367449277599418e-01 -1.285057562239352302e+00
3.129666985044895711e+00 8.861978505235423853e-01 -1.282030958081693983e+00
3.144863130282105956e+00 8.696795348473410625e-01 -1.286192538798474061e+00
3.150140182429973290e+00 8.503666459710809145e-01 -1.286192538798474061e+00
3.122669949239789577e+00 8.020219078859935902e-01 -1.270302866970768108e+00
3.109567193707964083e+00 7.783739286665488644e-01 -1.262736356576622310e+00
3.085497164248923507e+00 7.522997737676418994e-01 -1.250629939945989033e+00
3.106049578369728614e+00 6.969905301435677103e-01 -1.253656544103647352e+00
3.140122574682751910e+00 6.843859892566767078e-01 -1.266141286253987808e+00
3.211776559442358181e+00 6.587399072464383831e-01 -1.292624072633497878e+00
3.224267950434934082e+00 5.996781255498569996e-01 -1.293002398153205279e+00
3.263427171606092525e+00 5.862220031634789441e-01 -1.307757093421789474e+00
3.242331399614828413e+00 5.619495392069699946e-01 -1.297542304389692758e+00
3.178525857565834833e+00 1.361243997156512675e-01 -1.252899893064232772e+00
3.186702014099641378e+00 1.168806846675521233e-01 -1.255926497221891092e+00
3.170704206776801648e+00 9.683812253729075226e-02 -1.249116637867159874e+00
3.181834744374393065e+00 5.809417809659278564e-02 -1.253278218583939951e+00
3.142529562687305322e+00 -7.757175551768244470e-02 -1.237388546756233998e+00
2.909457937751554368e+00 -8.246727271296320216e-01 -1.188584554713993935e+00
2.928337217549797256e+00 -8.495049448997473718e-01 -1.198799343746090651e+00
2.925660817429056593e+00 -8.878060350280057023e-01 -1.202204273423456149e+00
2.914545774801078348e+00 -9.236415435984829392e-01 -1.202204273423456149e+00
2.899140184097521278e+00 -9.383588788646132217e-01 -1.198042692706676071e+00
2.906505945222619403e+00 -9.605044827407019925e-01 -1.203717575502285309e+00
2.876886049991764782e+00 -9.703009280951631066e-01 -1.193502786470188592e+00
2.855130249333962755e+00 -9.824918673404302583e-01 -1.186692927115457374e+00
2.196681826336688736e+00 -1.991185265502809498e+00 -1.164371721452727382e+00
2.161244871735056527e+00 -2.007896164591652877e+00 -1.158318513137410743e+00
2.134069041963051028e+00 -2.007146579031352740e+00 -1.149995351703850588e+00
2.112605379110814585e+00 -2.036400501471249846e+00 -1.151886979302386926e+00
2.099408890439411923e+00 -2.048677448641798460e+00 -1.151508653782679747e+00
2.077378416193705668e+00 -2.077563619534197326e+00 -1.153400281381216086e+00
2.069788194638949363e+00 -2.095546978760449708e+00 -1.156426885538874405e+00
2.107241220683457872e+00 -2.159957594198457009e+00 -1.185936276076042795e+00
2.035578167848020037e+00 -2.112112331390072928e+00 -1.151508653782679747e+00
2.021305525407537385e+00 -2.123219976164431699e+00 -1.150752002743265168e+00
1.930730333829214329e+00 -2.130292696560592614e+00 -1.127674146041120595e+00
1.918523148232334607e+00 -2.169795077321428955e+00 -1.136375632994388152e+00
1.894166420915708526e+00 -2.195982115476219576e+00 -1.137888935073217311e+00
1.879457877181324621e+00 -2.206152187671034159e+00 -1.137132284033802732e+00
1.852243476424637603e+00 -2.229049907764963923e+00 -1.137132284033802732e+00
1.822422923487741819e+00 -2.248732009685325828e+00 -1.135618981954973572e+00
1.806281160283495391e+00 -2.256977698039560387e+00 -1.134105679876144412e+00
1.793544450091175246e+00 -2.269472480447376039e+00 -1.134862330915558992e+00
1.744129066066506084e+00 -2.263417464126518119e+00 -1.120485961166681976e+00
1.702349422960164338e+00 -2.266127441130284303e+00 -1.111027823173999840e+00
1.677956003692597786e+00 -2.262388493229939179e+00 -1.103839638299561443e+00
1.653127180022835097e+00 -2.257688382437963881e+00 -1.096273127905415645e+00
1.574421246553486142e+00 -2.387911357844117788e+00 -1.121620937725803957e+00
1.554478444922133606e+00 -2.421866871016343570e+00 -1.128809122600242354e+00
1.516903384441203206e+00 -2.461901046367005463e+00 -1.134484005395851813e+00
1.494574676743687380e+00 -2.459286260745286334e+00 -1.128809122600242354e+00
1.466632223602859053e+00 -2.481429603054069233e+00 -1.130700750198778914e+00
1.425489920402630117e+00 -2.480765512565161313e+00 -1.121999263245511136e+00
1.396290217595471450e+00 -2.500498216982693922e+00 -1.123134239804633117e+00
1.379585635710820712e+00 -2.506583833675338102e+00 -1.121999263245511136e+00
1.341759186176634477e+00 -2.510252765131361752e+00 -1.115946054930194498e+00
1.304901747937232237e+00 -2.515017323398211602e+00 -1.110649497654292661e+00
1.279335384723770952e+00 -2.541597711044006669e+00 -1.115567729410487319e+00
1.251008921901912263e+00 -2.523670882256457304e+00 -1.103839638299561443e+00
1.207501015766038410e+00 -2.552969246980342000e+00 -1.106866242457219762e+00
1.190255858827013347e+00 -2.556971185304300231e+00 -1.105352940378390603e+00
1.157252236652318134e+00 -2.526329749880414699e+00 -1.088328291991562669e+00
1.143624637239335495e+00 -2.537605398865024675e+00 -1.090219919590099007e+00
2.953581705335525109e-01 -6.931003309389855982e-01 -2.605520548720169360e-01
2.925118579987037726e-01 -6.983224438654043187e-01 -2.620653569508460956e-01
2.903080289160860361e-01 -7.052513316201175497e-01 -2.643353100690898350e-01
2.856327429063491019e-01 -7.061593653567401763e-01 -2.639569845493825451e-01
2.833176355257009393e-01 -7.130711131566894734e-01 -2.662269376676262844e-01
9.682239227292557260e-01 -2.706120322041537740e+00 -1.127295820521413194e+00
8.328403908713888359e-01 -2.807818014972260912e+00 -1.149617026184143187e+00
8.089262864728187230e-01 -2.789750592972590315e+00 -1.139780562671753650e+00
7.840101310101753596e-01 -2.767041426555975736e+00 -1.128052471560827774e+00
7.540001211377825863e-01 -2.724497662149773625e+00 -1.108001219016341521e+00
6.977501619053552151e-01 -2.646687339117035354e+00 -1.071303643604734734e+00
1.354320110104843822e-01 -2.754153880097405693e+00 -1.079626805038294890e+00
1.753974617675763126e-02 -2.862028867696490231e+00 -1.122377588765218537e+00
1.732051729466026924e+00 2.722058242090624969e+00 -1.342752181040562487e+00
1.774260945253991251e+00 2.678228416204941009e+00 -1.336814189889678595e+00
1.853994595979001403e+00 2.586468701974016238e+00 -1.323750609357734032e+00
1.864977309159144836e+00 2.568353959265897934e+00 -1.320187814667203696e+00
1.895382179649132581e+00 2.576843089742437698e+00 -1.330876198738794702e+00
1.956423940558094987e+00 2.559766101678481398e+00 -1.340772850656934523e+00
1.980894736708986414e+00 2.526889011493589354e+00 -1.336022457736227409e+00
2.001404224899839157e+00 2.489502138031631340e+00 -1.328896868355166738e+00
2.020712245834867193e+00 2.451285491101724112e+00 -1.321375412897380475e+00
2.028657917283046341e+00 2.430376968071599197e+00 -1.316625019976673361e+00
2.045901871958211160e+00 2.420690292667080357e+00 -1.318208484283575732e+00
2.058626149370994085e+00 2.375959881371566773e+00 -1.307124234135259133e+00
2.108147558212279282e+00 2.344496469982583431e+00 -1.311082894902515061e+00
2.158458395296734889e+00 2.313356267922947573e+00 -1.315833287823222175e+00
2.155987274059956604e+00 2.227025801873302235e+00 -1.288122662452430678e+00
2.359199840012638383e+00 2.102737655763407876e+00 -1.314249823516319804e+00
2.376514043873453552e+00 2.066393342902040686e+00 -1.309499430595612690e+00
2.405703220968632650e+00 2.015218658783592520e+00 -1.304749037674905576e+00
2.430046376022923837e+00 2.010377078049085942e+00 -1.311478760979240654e+00
2.427408576142842112e+00 1.983219705187330373e+00 -1.303165573368003205e+00
2.455248204380823918e+00 1.980982303717603754e+00 -1.311874627055966247e+00
2.495244139381665338e+00 1.963203876470590359e+00 -1.320583680743929289e+00
2.528616105930187263e+00 1.939706529016283820e+00 -1.325729939741361996e+00
2.568401994535867594e+00 1.920637611307292492e+00 -1.334438993429325038e+00
2.595486972328336250e+00 1.891681058201579946e+00 -1.336418323812953002e+00
2.578472823476920528e+00 1.784014720279590849e+00 -1.303561439444728798e+00
2.595603721195722358e+00 1.749157017180192897e+00 -1.301186242984375241e+00
2.602465506241580240e+00 1.730653216338173372e+00 -1.299206912600747277e+00
2.664402574274200575e+00 1.633690970961130251e+00 -1.299206912600747277e+00
2.730795422728614863e+00 1.561228495821186835e+00 -1.307915966288710319e+00
2.731930401816684562e+00 1.474098669821907404e+00 -1.290101992836058642e+00
2.809521160674415263e+00 1.406475559192521096e+00 -1.306332501981807948e+00
2.846391577958813812e+00 1.381526276076747051e+00 -1.315833287823222175e+00
2.817050285497134432e+00 1.261989493817957886e+00 -1.282580537378272378e+00
2.820539945884315003e+00 1.242826967716577524e+00 -1.280601206994644414e+00
2.810422182673501634e+00 1.217820036113179238e+00 -1.272288019383406965e+00
2.812452668867280181e+00 1.177912018704288410e+00 -1.266350028232523073e+00
2.826419189758870854e+00 1.163432998889164294e+00 -1.269516956846327815e+00
2.874724624401674866e+00 1.121908947785916100e+00 -1.282184671301546786e+00
2.964755933919979825e+00 1.115365158420097869e+00 -1.317416752130124546e+00
2.978139457874820817e+00 7.196319409472714534e-01 -1.272683885460132558e+00
3.045659128581793773e+00 5.023447680754548061e-01 -1.282580537378272378e+00
3.013468503147671118e+00 4.591024161172934104e-01 -1.265954162155797480e+00
2.950052272033394818e+00 1.020752574468204582e-01 -1.224388224099610012e+00
3.042411083389723547e+00 -4.406725455315355089e-02 -1.263578965695443923e+00
3.048985164713266194e+00 -8.159154885225718135e-02 -1.266745894309248666e+00
2.352281285837813929e+00 -1.537891777118996384e+00 -1.163424848283868496e+00
2.290383938561573629e+00 -1.579012308472260262e+00 -1.151152999905375118e+00
2.245337581438374919e+00 -1.588979207024588280e+00 -1.137693553296704962e+00
2.197208561272828042e+00 -1.616445943607035751e+00 -1.127796901378565142e+00
2.191139539669376024e+00 -1.653790095415331729e+00 -1.135318356836351406e+00
2.194818823401888608e+00 -1.677791572727329816e+00 -1.142839812294137669e+00
2.187388617019646819e+00 -1.693474075077767704e+00 -1.144423276601040040e+00
2.192904507545917703e+00 -1.785464491455527103e+00 -1.170946303741654981e+00
2.152134501315170478e+00 -1.774368684017452624e+00 -1.154319928519179861e+00
2.133448438815920944e+00 -1.781071528033422391e+00 -1.149965401675198340e+00
2.069951321024246838e+00 -1.884627775681540385e+00 -1.158674455363161382e+00
2.068482310063409990e+00 -1.906623129312172926e+00 -1.164612446514045274e+00
2.075553787608681144e+00 -1.936810665386869967e+00 -1.175696696662362095e+00
2.062962765113573571e+00 -1.948879330520930653e+00 -1.175300830585636502e+00
1.964291367728676851e+00 -1.949144514365945824e+00 -1.144819142677765633e+00
1.927339374233243419e+00 -1.960014819891068960e+00 -1.136901821143253777e+00
1.920954761631123553e+00 -2.002061567229026728e+00 -1.147986071291570376e+00
1.766802439386335077e+00 -2.109468595092486076e+00 -1.138089419373430555e+00
1.759683060712863290e+00 -2.127342305910858933e+00 -1.142048080140686483e+00
1.724789639692471122e+00 -2.138060332516066531e+00 -1.136110088989802591e+00
1.608470570281811618e+00 -2.179130748798723705e+00 -1.119483713767327693e+00
1.564362569712518747e+00 -2.203129269845749860e+00 -1.116712651230248543e+00
1.544484786473466764e+00 -2.203666428792614873e+00 -1.111962258309541429e+00
1.537731884399243132e+00 -2.222915412392541423e+00 -1.117108517306974136e+00
1.527691146222960317e+00 -2.237615564259681999e+00 -1.119879579844053286e+00
1.474814654566993788e+00 -2.278285970692266460e+00 -1.121858910227681250e+00
2.796563989438325959e-01 -1.767249615113489103e+00 -7.232217709650083926e-01
3.522788224235239851e-01 -2.767867490458296942e+00 -1.154715794595905454e+00
3.346235383863718771e-01 -2.764507397417615309e+00 -1.152340598135551897e+00
3.171280707683768463e-01 -2.761947309109667792e+00 -1.150361267751923933e+00
2.659704716439669214e-01 -2.764574569801141024e+00 -1.149173669521747154e+00
1.953206148914721441e+00 2.148928060585891586e+00 -1.313147913044959258e+00
1.978743643737660651e+00 2.098141333271569486e+00 -1.303805095620584442e+00
1.972170308194149513e+00 2.065688929117469819e+00 -1.290640216522601635e+00
2.004937147874486403e+00 1.999431621072092602e+00 -1.279174031501777886e+00
2.137094311082179843e+00 1.955433769254836252e+00 -1.309750524890641143e+00
2.164566274985993743e+00 1.908592086899960405e+00 -1.304654442659163971e+00
2.166521112404586447e+00 1.863614380706889895e+00 -1.291489563561181164e+00
2.207436544309349546e+00 1.829186601187640759e+00 -1.295736298754078808e+00
2.253483816916960425e+00 1.798391748863639172e+00 -1.303380422101294567e+00
2.266084220230036195e+00 1.763387993095566708e+00 -1.297859666350527519e+00
2.254581950779161126e+00 1.732382638813162012e+00 -1.284694787252544712e+00
2.264064822957192025e+00 1.695917630395463505e+00 -1.277900010943908482e+00
2.380816047114123535e+00 1.650032808827107456e+00 -1.309750524890641143e+00
2.383415752687413569e+00 1.630292694890610461e+00 -1.305503789697743500e+00
2.409234062927225750e+00 1.583664555869905399e+00 -1.303380422101294567e+00
2.433007524894562845e+00 1.453740882843787663e+00 -1.280448052059647068e+00
2.489996602008349935e+00 1.346213396682790497e+00 -1.278749357982488011e+00
2.487014816478033019e+00 1.324966566054629480e+00 -1.272803928712431309e+00
2.516758355741863795e+00 1.321010696789686412e+00 -1.284270113733255059e+00
2.538430991599986086e+00 1.292894772668286230e+00 -1.287242828368283298e+00
2.558463691077831559e+00 1.283366298030656383e+00 -1.293612931157629875e+00
2.553293363038923847e+00 1.261247184706339119e+00 -1.286818154848993645e+00
2.559354695642880539e+00 1.244767147378763150e+00 -1.285968807810414116e+00
2.553949235037428434e+00 1.203647129542692706e+00 -1.275351969828169896e+00
2.625812133923066227e+00 1.159563378367690412e+00 -1.297434992831237865e+00
2.646172611151697662e+00 1.149180960439887711e+00 -1.304229769139874096e+00
2.649008415132061423e+00 1.131151028065560560e+00 -1.302106401543425385e+00
2.663416710852260838e+00 1.118018697775883252e+00 -1.305928463217033153e+00
2.672738440067109256e+00 1.083555579101703081e+00 -1.303805095620584442e+00
2.686910827143835334e+00 1.070139634091868075e+00 -1.307627157294192211e+00
2.589647840065529838e+00 8.870628630366442779e-01 -1.235007985495641947e+00
2.591607164897476778e+00 8.700090807683351635e-01 -1.233309291418482889e+00
2.604640740535508758e+00 8.566248633999437034e-01 -1.237131353092090658e+00
2.632233607474215642e+00 8.300168353754265871e-01 -1.245624823477886167e+00
2.626891055273612441e+00 8.106621416679344883e-01 -1.240528741246408995e+00
2.608403911973454115e+00 7.874991296416363751e-01 -1.229062556225585245e+00
2.698549585375921822e+00 7.428458420227966874e-01 -1.263885784807346147e+00
2.711447900390901555e+00 5.528693009343119691e-01 -1.249022211632204282e+00
2.786925456536101908e+00 4.796366983614693824e-01 -1.277475337424618829e+00
2.759441391762505358e+00 4.575372233209057948e-01 -1.263036437768766618e+00
2.782108011592845820e+00 -8.913947015436976540e-02 -1.256666334979420041e+00
2.327610035896304108e+00 -4.954284194159903620e-01 -1.067261945376183574e+00
2.331948491503402998e+00 -5.263648750989260439e-01 -1.072358027607660746e+00
2.320741079228884285e+00 -5.388070139048788398e-01 -1.068535965934052756e+00
2.376368152032432679e+00 -5.672195686143290949e-01 -1.096989091726467302e+00
2.393058541752486779e+00 -5.867829018498836868e-01 -1.106756582670131994e+00
2.395709673367069303e+00 -8.274045484887099233e-01 -1.139881117174733838e+00
1.678442984704696661e+00 -1.902794679798040622e+00 -1.141155137732603242e+00
1.660206386412403257e+00 -1.905538197462975702e+00 -1.136483729020415723e+00
1.636112317598763966e+00 -1.925077185788150125e+00 -1.136059055501125847e+00
1.609165452888043468e+00 -1.917025752816023942e+00 -1.125017543999591974e+00
1.571055223537453083e+00 -2.070212986526065890e+00 -1.170032937044307442e+00
1.330989464191916660e+00 -2.078903109678622130e+00 -1.108879950266580705e+00
1.296885796431064497e+00 -2.139616157991601764e+00 -1.124592870480302098e+00
1.271907127667246673e+00 -2.157711891481711497e+00 -1.125866891038171502e+00
1.216878959462946330e+00 -2.153932234396510825e+00 -1.111427991382319291e+00
1.152946103980480252e+00 -2.228649862139158166e+00 -1.127990258634620213e+00
3.094414547886206179e-01 -7.169918266182697675e-01 -3.172885103104527982e-01
3.022424963838096224e-01 -7.121947595655446772e-01 -3.138911221561346276e-01
3.009636492532236640e-01 -7.215725715267118368e-01 -3.177131838297425626e-01
2.921242417932932156e-01 -7.124920892486116264e-01 -3.121924280789755701e-01
2.887483291583787248e-01 -7.167958269633228907e-01 -3.134664486368448633e-01
2.873022538947879179e-01 -7.261464785331370742e-01 -3.172885103104527982e-01
8.600887318869818721e-01 -2.366839328118125252e+00 -1.132236993827518079e+00
8.372233888744498032e-01 -2.395173363974666625e+00 -1.141155137732603242e+00
7.067412069302645428e-01 -2.448175674256729106e+00 -1.146251219964080414e+00
1.015892017039898149e-02 -1.824746996482828676e+00 -8.069370780515555674e-01
1.588005513224140408e+00 2.222281297058154692e+00 -1.294222831392949580e+00
1.925455885932239708e+00 1.876033080350466564e+00 -1.273030550458945864e+00
1.952436908044178132e+00 1.879125987942862341e+00 -1.283626690925947722e+00
1.981477486615061068e+00 1.883813756334530076e+00 -1.295547348951324951e+00
2.036002703736478736e+00 1.888665431012308327e+00 -1.316739629885328666e+00
2.055487102417280720e+00 1.883415978834676041e+00 -1.322037700118829706e+00
2.122784834861820347e+00 1.633308465689060629e+00 -1.268173986078236615e+00
2.229508408646033946e+00 1.315526073967452358e+00 -1.224023400799062244e+00
2.378109569504763154e+00 1.268905146357050207e+00 -1.276562597281279743e+00
2.413413986382800580e+00 1.249955138014836153e+00 -1.287600243601073391e+00
2.436105109526581991e+00 1.186809274396618097e+00 -1.283626690925947722e+00
2.439297470626898612e+00 1.169896684833103828e+00 -1.281419161661988992e+00
2.456163698066598400e+00 1.159509986995864050e+00 -1.286717231895490032e+00
2.473202590387261868e+00 1.004587895815461263e+00 -1.263758927550319155e+00
2.513055045204752869e+00 9.496260851080521315e-01 -1.272147538753362284e+00
2.591984370888856137e+00 6.641663060156347553e-01 -1.266849468519861466e+00
2.581275551076268826e+00 5.942996129288037332e-01 -1.253604292936109088e+00
2.572777337520255170e+00 3.958113364919206290e-01 -1.231087494443730002e+00
2.606756389343027447e+00 3.683715428222607557e-01 -1.245657187585857750e+00
2.599512785380930779e+00 3.348571818784738530e-01 -1.239917611499564920e+00
2.633718902639250015e+00 1.923161842598067606e-01 -1.249630740260983419e+00
2.592017843306968938e+00 1.413336278650784428e-01 -1.227555447621396123e+00
2.554300434413947052e+00 1.235372936374925096e-01 -1.208570695951351137e+00
2.171142433362119650e+00 -1.285546477768491513e+00 -1.191793473545264659e+00
2.172448303930721636e+00 -1.304380459770418499e+00 -1.197091543778765699e+00
2.175904583485138044e+00 -1.324676874123898340e+00 -1.203714131570641888e+00
2.100403914322595877e+00 -1.368777243159176038e+00 -1.183846368195013321e+00
1.947636948793606271e+00 -1.522407487040432938e+00 -1.166627639936135274e+00
1.850421897855817122e+00 -1.579025659521585023e+00 -1.147201382413298498e+00
1.546200345589995084e+00 -1.840593140936982897e+00 -1.133073195123962540e+00
1.159571462201753667e+00 -2.110805901641336302e+00 -1.135280724387921270e+00
1.143603829396907745e+00 -2.112359961534935771e+00 -1.132190183418379181e+00
4.237172704622907404e-01 -1.842530930272882728e+00 -8.805318473270843382e-01
4.122072323809549133e-01 -1.844220649245746024e+00 -8.800903414742926589e-01
2.643693388649389076e-01 -1.794992473483928430e+00 -8.430038498397860458e-01
2.542333324100621850e-01 -1.802799275837574600e+00 -8.460943908093282451e-01
2.431667781373063608e-01 -1.804325285052318595e+00 -8.460943908093282451e-01
5.232965497420712098e-02 -1.766026594834916086e+00 -8.196040396418234897e-01
4.155832969294642742e-02 -1.769005409479092572e+00 -8.209285572001987497e-01
3.047314896437475912e-02 -1.756667593921295456e+00 -8.147474752611143511e-01
1.981401484044142264e-02 -1.766690615605865489e+00 -8.196040396418234897e-01
8.892171208797644902e-03 -1.753320304435586285e+00 -8.129814518499473008e-01
1.720510809906137029e+00 1.817567645903161333e+00 -1.281669477721270045e+00
1.838966420854921013e+00 1.595719138393473902e+00 -1.245484574452204951e+00
1.896194696894257792e+00 1.604903030099726235e+00 -1.271800867738797747e+00
1.919836518683481152e+00 1.584877770417774778e+00 -1.274620470590932753e+00
2.002373840723296716e+00 1.494033592453615444e+00 -1.279319808677824355e+00
2.229869067223058554e+00 1.289760988574386813e+00 -1.320673983842470367e+00
2.178657637395186253e+00 1.189937330201728205e+00 -1.270861000121419337e+00
2.171136489433769245e+00 1.168623164237208245e+00 -1.261932257756325448e+00
2.179046670844911660e+00 1.155691581512334087e+00 -1.262402191565014542e+00
2.151643503953650338e+00 1.124371100496549980e+00 -1.241725103982691536e+00
2.157716495455531014e+00 1.110745048017603542e+00 -1.241255170174002442e+00
2.196477302769135775e+00 1.096758281844204541e+00 -1.256293052052055437e+00
2.197003306239101672e+00 1.014123652352414862e+00 -1.237495699704489249e+00
2.316152504370333709e+00 9.505610396598189737e-01 -1.282139411529959361e+00
2.336687003699875476e+00 9.422490005933694679e-01 -1.290598220086364156e+00
2.279063783240891983e+00 7.448685253795908068e-01 -1.225747354487260132e+00
2.366943170267306940e+00 6.938641466625313781e-01 -1.262402191565014542e+00
2.381232820587517729e+00 6.664210376578956208e-01 -1.265691728225838641e+00
2.419949607300957872e+00 6.452854323869314790e-01 -1.282609345338648454e+00
2.412278231597264622e+00 6.116611423048695650e-01 -1.274150536782243659e+00
2.362654275695033501e+00 5.226232710338528653e-01 -1.237495699704489249e+00
2.446301309871274476e+00 4.472603536602639540e-01 -1.273210669164865250e+00
2.448123921654926427e+00 4.166203220310794597e-01 -1.271330933930108653e+00
2.356110571041083013e+00 -2.187971988336588625e-02 -1.203660465478869623e+00
2.388324255469274959e+00 -1.396379328174594536e-01 -1.222927751635125126e+00
2.373909624221529402e+00 -1.826749378716114314e-01 -1.216818612122166021e+00
2.378521672279724886e+00 -2.124332548457650294e-01 -1.220578082591679436e+00
2.394543242597013233e+00 -2.881828649424060251e-01 -1.233266295426286741e+00
2.397107508812179155e+00 -3.034319323729235962e-01 -1.235615964469732431e+00
2.293045940205680200e+00 -4.635987852155213362e-01 -1.194731723113775734e+00
2.258492568696476521e+00 -6.928945434601903042e-01 -1.206950002139693723e+00
1.581397574689492158e+00 -1.496200302169783836e+00 -1.108263902314970295e+00
1.549326556211889416e+00 -1.578003604333980237e+00 -1.126591320853847611e+00
1.559241674703871761e+00 -1.607794262243124050e+00 -1.141629202731900605e+00
1.536366662223280555e+00 -1.623596055489535450e+00 -1.139279533688454915e+00
1.549552191082182562e+00 -1.699293111305246073e+00 -1.173584701722763413e+00
1.421485857678734144e+00 -1.699831183776369325e+00 -1.128940989897293301e+00
1.408868412561549155e+00 -1.727423362469238777e+00 -1.135989997027630816e+00
1.388299514230780796e+00 -1.723642629556843220e+00 -1.127531188471225798e+00
9.717905278649793255e-01 -1.945130808183186177e+00 -1.106854100888902792e+00
9.212490189975108823e-01 -1.994879038004962801e+00 -1.119072379914821003e+00
3.164615705775328247e-01 -7.376464793080699245e-01 -3.765769621859492156e-01
3.112519434811583663e-01 -7.379441605458568754e-01 -3.756370945685709173e-01
3.030466707790434588e-01 -7.308512534517770387e-01 -3.704678226729901658e-01
2.952690472613716532e-01 -7.245049729350381273e-01 -3.657684845860985634e-01
2.875808371424837806e-01 -7.180910717769019014e-01 -3.610691464992069610e-01
2.690775837440930948e-02 -1.685145574791713452e+00 -8.465107708751085092e-01
1.835083629978162101e+00 1.548060804903943488e+00 -1.285281609600474440e+00
2.106819747300804568e+00 1.031537269638784338e+00 -1.254632873473115140e+00
2.149407935720304419e+00 9.718336327384200501e-01 -1.261930191598676698e+00
2.166502884439895915e+00 9.636058902812868476e-01 -1.268741021849201012e+00
2.183577367563412253e+00 9.552047640850731547e-01 -1.275551852099725325e+00
2.138825014484764253e+00 8.130057281814734305e-01 -1.222524673720643440e+00
2.271039965608788957e+00 3.255045322276579611e-01 -1.225930088845905486e+00
2.286267995070819570e+00 1.432862607150568734e-01 -1.223984137345755840e+00
2.267785590930880613e+00 1.141933774131459051e-01 -1.212794916219894326e+00
1.969702913864737504e+00 -1.160959858743791928e+00 -1.221551697970568506e+00
1.703956636794284885e+00 -1.309833080178292697e+00 -1.145173101589689102e+00
1.683535902975165977e+00 -1.361133288464335678e+00 -1.153929883340363061e+00
1.658917065578721761e+00 -1.358167757606545845e+00 -1.142254174339464301e+00
1.662667521477159793e+00 -1.378348058249642349e+00 -1.151010956090138482e+00
1.677780080875966862e+00 -1.461742025371330245e+00 -1.187497546717947161e+00
1.660911437030987869e+00 -1.465079934687589569e+00 -1.181659692217497781e+00
1.644065294829688328e+00 -1.468266130541209691e+00 -1.175821837717048401e+00
1.559916209154107891e+00 -1.499952060741693183e+00 -1.153443395465325594e+00
1.482385215019252689e+00 -1.534377262043534307e+00 -1.136416319839014921e+00
1.460445333720444827e+00 -1.549276603157182297e+00 -1.133983880463827587e+00
1.142207800051932454e+00 -1.823668167257990191e+00 -1.146632565214801280e+00
1.132375914607792300e+00 -1.832870998047205768e+00 -1.148092028839913681e+00
1.133399907771250881e+00 -1.859918771273402438e+00 -1.161227201465924841e+00
3.405873582202161021e-02 -1.754853044847863863e+00 -9.257670699477993370e-01
2.067632206816952145e+00 6.296449327466628887e-01 -1.243542885619744132e+00
1.197518191473728288e+00 -1.569801716895404153e+00 -1.131427696289910800e+00
1.593191509082343194e+00 1.383786511167018229e+00 -1.266203641176802286e+00
1.455884895438020799e+00 -1.216814125105618150e+00 -1.133119611777097191e+00
1.616791161197963067e+00 1.034912759603800358e+00 -1.234444693938725024e+00
1.719204776039829907e+00 4.800304495483156408e-01 -1.279181262621747361e+00
1.173339455006594090e+00 -1.211408930698134379e+00 -1.205484171386044912e+00
1.498094051341841926e+00 7.355634511054028879e-01 -1.242022416303981247e+00
1.264261181829301917e+00 -8.406507884614089487e-01 -1.124667640131902679e+00
2.680243963507871197e-01 1.855557507721998789e-01 -2.512734584100441149e-01
2.738932896133962624e-01 1.871896118211709426e-01 -2.568236905131511816e-01
2.809810055263545214e-01 1.895715144912310524e-01 -2.637614806420350289e-01
2.767666839049147121e-01 1.842173702004324121e-01 -2.575174695260395996e-01
2.814880583089845456e-01 1.849113452630846421e-01 -2.616801436033698858e-01
2.848439822964252133e-01 1.796987432540354535e-01 -2.616801436033698858e-01
2.770574257967789999e-01 1.676402724071525963e-01 -2.491921213713789440e-01
2.651455445990770765e-01 1.581005357068963335e-01 -2.346227621007228870e-01
2.605464422688944515e-01 1.531461977908710470e-01 -2.283787509847274022e-01
2.596197278117579055e-01 1.504478801467926119e-01 -2.262974139460622591e-01
2.599152408325625108e-01 1.484902815665155862e-01 -2.256036349331738966e-01
2.633212216573782571e-01 1.483244440463029057e-01 -2.283787509847274022e-01
2.567008888265239763e-01 1.424567355998768159e-01 -2.200534028300668299e-01
2.670094152838765056e-01 1.461326570820784543e-01 -2.304600880233926008e-01
2.434722958993702224e-01 -6.847301775537200097e-01 7.922955341800633766e-01
