# X Y Z
5.017505405371462501e+00 -7.490124557950516682e+00 -9.497332560171614091e-01
4.932200077388512405e+00 -7.610441791709894765e+00 -9.556038117711475044e-01
4.855895197249190609e+00 -7.644287209920042514e+00 -9.542224531454377434e-01
4.781326289815956088e+00 -7.668679519011896595e+00 -9.521164061309372872e-01
4.839210971014272111e+00 -7.655115734449960740e+00 -9.542419673843651751e-01
4.693573688577000524e+00 -7.676522954156152601e+00 -9.477878669056615246e-01
4.759503098031766299e+00 -7.667532109717152267e+00 -9.507429855064860602e-01
4.693953831653606912e+00 -7.676455882802613040e+00 -9.478034459012864010e-01
4.667833784315229551e+00 -7.666994237992891925e+00 -9.454271298519829614e-01
4.684097007326562867e+00 -7.674718812934459677e+00 -9.470768671104723424e-01
4.549062475981650699e+00 -7.596931417204855208e+00 -9.321146899217866988e-01
4.476730876048242713e+00 -7.556194594063998515e+00 -9.242135984807061666e-01
4.407590880428401192e+00 -7.615332248617916910e+00 -9.259809034371095926e-01
4.427532949073970769e+00 -7.599823148459039501e+00 -9.256076858081359049e-01
4.451300844698953263e+00 -7.579920697812161379e+00 -9.250378076438382502e-01
4.424323054524525567e+00 -7.602382679342601257e+00 -9.256733307276260314e-01
4.384272642920839402e+00 -7.634141265212778471e+00 -9.264903225577736379e-01
4.392026354507172492e+00 -7.628037632542421065e+00 -9.263326776921764205e-01
4.422385943628465377e+00 -7.603815258968063873e+00 -9.257116359465797917e-01
4.185018915156374142e+00 -7.559215618312149054e+00 -9.086079635978142610e-01
4.221928316928051927e+00 -7.533564723886715164e+00 -9.081040400228864717e-01
4.158156312337356830e+00 -7.608161013426406605e+00 -9.118765410828093554e-01
4.222962540918122620e+00 -7.552211811292003141e+00 -9.099460074191334513e-01
4.116502796504781791e+00 -7.614726405952930044e+00 -9.103291776159295745e-01
4.161757037451530472e+00 -7.609859768276022507e+00 -9.122300326109090696e-01
4.107224749594841740e+00 -7.618680634054785017e+00 -9.102261093216452714e-01
4.066514872571180383e+00 -7.632080768621531064e+00 -9.094134974174898911e-01
4.087508768346822308e+00 -7.625887939384037750e+00 -9.098980216458074644e-01
4.034356115123142850e+00 -7.657634247982879394e+00 -9.102385062712725627e-01
4.023103609775978917e+00 -7.678517927816308486e+00 -9.116920525100375983e-01
4.003315680019901457e+00 -7.773631026647890074e+00 -9.199487244840860445e-01
3.976114029006422967e+00 -7.817901924190331364e+00 -9.229140601483569739e-01
4.008602408531475092e+00 -7.735616714610861422e+00 -9.165123418061131844e-01
3.979225970799212142e+00 -7.814066932092583073e+00 -9.226944047050227304e-01
3.953612910407161340e+00 -7.910404355457302472e+00 -9.308621203384560561e-01
3.959936380034599690e+00 -7.864767438404606459e+00 -9.267000088539316671e-01
3.916825718056017980e+00 -7.902885203882703991e+00 -9.283273444020213594e-01
3.948627321026941139e+00 -7.836988453534004861e+00 -9.234256447207351837e-01
3.916030730554174166e+00 -7.902335727073482197e+00 -9.282346526676772402e-01
1.149278651038025817e-01 -8.125637813746173777e+00 -8.522161255900005949e-01
1.534474952562435157e-01 -6.963485973654670147e+00 -9.230444643941883021e-01
1.034488854281649661e-01 -8.146464319365938067e+00 -8.544861477322766019e-01
1.299444343780835065e-01 -7.093501328965241548e+00 -9.214172063652401601e-01
1.730542811089206406e-02 2.745715459508530465e+00 -3.415132293641243155e-01
3.641479335562573805e-02 2.757033101171379119e+00 -3.431140098385423998e-01
2.976873972219078179e-02 2.754565249386127235e+00 -3.427571333547418941e-01
2.498317626026317489e-02 2.751947939648204500e+00 -3.423857823620906626e-01
4.190889809927442200e-02 2.760767309551246829e+00 -3.436396224844583402e-01
3.570338371670250116e-02 2.756562904729162877e+00 -3.430477649431921128e-01
1.255054291876556427e-01 2.616091500109848589e+00 -3.239134572975095328e-01
1.560031093253284595e-01 2.614169138365552314e+00 -3.239000828028897883e-01
1.456873136709373184e-01 2.582397048954494512e+00 -3.193937551790936302e-01
1.302902431546476281e-01 2.595698413114805980e+00 -3.211160718483697663e-01
1.995772378393644020e-01 2.628404713318432506e+00 -3.262568858380165415e-01
2.107730362575447047e-01 2.624891099064321942e+00 -3.258952098453400392e-01
2.111468837282238220e-01 2.633133159100727649e+00 -3.270377863345772518e-01
1.910534606919964962e-01 2.612376871609356499e+00 -3.239488771654481791e-01
2.180530189054232515e-01 2.632580969390825310e+00 -3.270377863345772518e-01
1.886194746583353121e-01 2.603303840343238917e+00 -3.226687690636241834e-01
2.532528602039815779e-01 2.742155139283430465e+00 -3.426323907027683524e-01
2.734484654700141681e-01 2.761927911619634912e+00 -3.456375187137744054e-01
2.688802018227144375e-01 2.759865561382482291e+00 -3.452869362422887334e-01
2.576043235287526212e-01 2.747800345428951463e+00 -3.434690276116669216e-01
2.781708786181436577e-01 2.767837109046018984e+00 -3.465158063035862490e-01
2.819405935957978171e-01 2.770699067859532239e+00 -3.469630771177776851e-01
2.880364749792213575e-01 2.762345329406958871e+00 -3.458969929960610812e-01
2.745886663489821022e-01 2.753344468582687554e+00 -3.444680318929136953e-01
7.465796060836856762e-01 4.106511099978953361e+00 -5.399268551398646032e-01
7.131143346296670016e-01 4.320949248074437143e+00 2.508929802754245042e-02
7.345496626302672194e-01 4.082106039033071454e+00 -5.362931039639237119e-01
7.370522999401594166e-01 4.257936671026119058e+00 -2.014388707468681705e-01
2.212113008283267845e+00 8.461066098593928331e+00 -1.437855410750636720e+00
2.291573289965988192e+00 8.686515069125047006e+00 -1.262851168014833547e+00
4.191841197657224072e+00 1.202574508526874908e+01 -1.731304208523451793e+00
4.851556998394112696e+00 1.165732083123182683e+01 -1.716678809481802181e+00
1.721124590399609522e+00 5.832705369393763384e+00 -8.049556087764891954e-01
1.732048468540555275e+00 5.830512120280747723e+00 -9.343088721110957007e-01
1.721671649966752593e+00 5.832754319667206033e+00 -8.049838089106734484e-01
1.754205162318482225e+00 5.828704724048975550e+00 -1.089394214136832240e+00
4.789567475665389651e+00 1.179794383479016950e+01 -1.729651676902278279e+00
4.462702017578611624e+00 1.197268560104227220e+01 -1.736044676305661838e+00
5.092630204664986060e+00 1.157539160583188220e+01 -1.717100668719347523e+00
3.456527210569845021e+00 1.215273467322065670e+01 -1.716569288150417316e+00
8.721395411619825566e+00 9.655941716471716063e+00 -1.767830735609382975e+00
8.775616782963281182e+00 9.574483999998690820e+00 -1.764561341607474354e+00
8.770556827774573350e+00 9.576565531095125650e+00 -1.764271367642962662e+00
8.740031023546885436e+00 9.625104957052545984e+00 -1.766400890309965055e+00
8.810330583634938151e+00 9.522094344526029985e+00 -1.762442487481865383e+00
8.812016365755486191e+00 9.518975184523704058e+00 -1.762283261998758288e+00
8.842354326607752668e+00 9.430882494283219231e+00 -1.756202305779411610e+00
8.814354273564743991e+00 9.511902919041258286e+00 -1.761785535801414504e+00
8.863976450397897722e+00 9.398840602285384094e+00 -1.755023810761653591e+00
8.889287547076417439e+00 9.323350646611970660e+00 -1.749832536310768294e+00
8.940136923609998121e+00 9.247664365272221687e+00 -1.747139906113342134e+00
8.893916784199502601e+00 9.271061944373469643e+00 -1.745021120291674332e+00
8.960880150287302115e+00 9.240949660932725962e+00 -1.748471599831858736e+00
8.963950823177952998e+00 9.167602260672550685e+00 -1.741470749841609100e+00
8.968187365374218345e+00 9.032867408378390195e+00 -1.728547445660008286e+00
8.965857219434353098e+00 9.176606978991854291e+00 -1.742550353698050669e+00
8.998407054062292687e+00 8.999426834570416034e+00 -1.728219681711070210e+00
8.965160046719464759e+00 9.041671252316719531e+00 -1.729120663901133392e+00
8.996995754494584219e+00 9.000062543399632631e+00 -1.728143237117602204e+00
8.989436040951119367e+00 9.045465592653641806e+00 -1.731895015827765949e+00
9.067110173922662497e+00 8.768627446120722979e+00 -1.712533917050568455e+00
9.097067090531705702e+00 8.694245713593295122e+00 -1.708404013848781489e+00
9.099644033006841326e+00 8.664576664235832837e+00 -1.705791612929870915e+00
9.086282391335299025e+00 8.691109758535274565e+00 -1.706989300388800146e+00
9.120732970846653132e+00 8.628772671674287409e+00 -1.704490400348582346e+00
9.131986817888300578e+00 8.603091229535436923e+00 -1.703177397376429925e+00
9.132889749140947089e+00 8.600042523818428819e+00 -1.702979074454284092e+00
9.152202305522211034e+00 8.526736101893124697e+00 -1.697971576223086032e+00
9.181684425955696227e+00 8.378265911917733177e+00 -1.687003733852726395e+00
9.152206472933352543e+00 8.526833365184337765e+00 -1.697981186332988113e+00
9.172383410850647678e+00 8.391160338716352030e+00 -1.687260142088584880e+00
9.193131429525410070e+00 8.356561525998268181e+00 -1.686144976573217935e+00
9.197929685578770886e+00 8.270625925742143281e+00 -1.678631917219212788e+00
9.198792770030248533e+00 8.250934338607157414e+00 -1.676895408451586356e+00
9.216331427783083896e+00 8.157201554055184545e+00 -1.670052747233615520e+00
9.201623066581664290e+00 8.179045512685759078e+00 -1.670535609373819508e+00
9.225414636301826121e+00 8.150768351247352328e+00 -1.670407914785972947e+00
9.232039135612881253e+00 8.017574905546799968e+00 -1.658904845359104430e+00
9.237255102459657863e+00 7.951867107643955990e+00 -1.653483967750546846e+00
9.231465657225982113e+00 8.015774532226775051e+00 -1.658680450897577208e+00
9.293710786849267436e+00 7.874105386076834634e+00 -1.652430260552125940e+00
9.227731211844771408e+00 7.971503285794726779e+00 -1.654260461649161407e+00
9.277012058311779441e+00 7.891766992586515705e+00 -1.652251486776132205e+00
9.251346222649223350e+00 7.940921689258073179e+00 -1.653998421484013548e+00
9.268314010900716937e+00 7.678667511427869741e+00 -1.632288295931028310e+00
9.254452152512829599e+00 7.733287149050429576e+00 -1.635657672667592877e+00
9.253160976063535159e+00 7.701532352972654039e+00 -1.632694878004735450e+00
9.277706316628382410e+00 7.621136745127979673e+00 -1.628206004145444030e+00
9.247629776311711680e+00 7.462829639232158030e+00 -1.611079505100288856e+00
9.258853588304361892e+00 7.561050149460198710e+00 -1.620890772409285363e+00
9.250253879197121165e+00 7.406646191515603661e+00 -1.606471974265844205e+00
9.247401089555967957e+00 7.480700326180746096e+00 -1.612615837510246619e+00
9.277139823670022878e+00 7.270268379083894672e+00 -1.597629011444708924e+00
9.253770525243172784e+00 7.369402371408333430e+00 -1.603625233555038943e+00
9.267393738090555999e+00 7.304399536172733853e+00 -1.599501577045648881e+00
9.291238596182219922e+00 7.198558854548483765e+00 -1.593052803804712259e+00
9.281913042394830171e+00 7.246599441670637631e+00 -1.596130603434942730e+00
9.292782386655417781e+00 7.185972855727477793e+00 -1.592149608918631110e+00
9.283333660047530245e+00 7.069689177388484680e+00 -1.581276692439637754e+00
9.287139417618584858e+00 7.138900297140941653e+00 -1.587542141656581363e+00
9.284059967719349160e+00 7.063235467914743992e+00 -1.580814981093303206e+00
9.290728560502406808e+00 6.973228723130636020e+00 -1.574015327150511734e+00
9.303949703621064771e+00 6.848552164053115732e+00 -1.565151553581626054e+00
9.291094533960581714e+00 6.926826668464439507e+00 -1.570189943690899481e+00
9.300064611174652995e+00 6.869604123451063415e+00 -1.566457194446720935e+00
9.287229020261440482e+00 6.772836254376098708e+00 -1.557064274855923802e+00
9.281574617399503069e+00 6.721149617772682383e+00 -1.552204054845580217e+00
9.305160799997404197e+00 6.838920398036747450e+00 -1.564491607643728077e+00
9.305417285993797805e+00 6.678766328805304298e+00 -1.551447238371241433e+00
9.295246604504326271e+00 6.586446308627335711e+00 -1.542849309631230348e+00
9.299185030505938698e+00 6.607743347680360202e+00 -1.545010902093465255e+00
9.285366466185138279e+00 6.544059201592068220e+00 -1.538331051261654592e+00
9.261699166893475166e+00 6.442136430752178455e+00 -1.527515276776951980e+00
9.287274425403143852e+00 6.551341950552938442e+00 -1.539129625740086382e+00
9.269000734859815793e+00 6.335613735941113767e+00 -1.519950292322263419e+00
9.257842559124771498e+00 6.413953030122808485e+00 -1.524843681953222507e+00
9.261667683248989036e+00 6.352240923441064169e+00 -1.520414163652859640e+00
9.295804883941821473e+00 6.266380290955129162e+00 -1.517628722092166038e+00
9.297781212956486740e+00 6.260800959742207183e+00 -1.517422416566041488e+00
9.313356512545354349e+00 6.184594892109603670e+00 -1.513334992787320088e+00
9.311082531410640684e+00 6.199121788804875521e+00 -1.514191446227850735e+00
9.317213073040838012e+00 6.158022331741382693e+00 -1.511740756832610666e+00
9.329547086392990352e+00 6.085895386512565786e+00 -1.507672367206515318e+00
9.316090996294992266e+00 6.166991776090419819e+00 -1.512295259432083094e+00
9.353475758717891608e+00 6.050163953004361161e+00 -1.507758941232737904e+00
9.351946431715719044e+00 5.980979601092939468e+00 -1.502381771995715321e+00
9.363106017228266964e+00 5.879592366514415858e+00 -1.496145801121205432e+00
9.361588525587475118e+00 6.026161623904386033e+00 -1.506894777604079527e+00
9.343985174486581613e+00 5.940015849067718179e+00 -1.498382726372966989e+00
9.370598064689355411e+00 5.825378689791380182e+00 -1.493041757983196494e+00
9.365725990434034642e+00 5.865970391301774889e+00 -1.495449583473011934e+00
9.361197072007604092e+00 5.759679827885290315e+00 -1.487130013871247769e+00
9.348961701229844934e+00 5.719582400391046484e+00 -1.482764691589901540e+00
9.358235650142216144e+00 5.821287845842952891e+00 -1.491301137181703984e+00
7.993331180842241146e+00 -2.142505663878714994e+00 -1.109807321976722605e+00
7.936832413641936590e+00 -2.152352116657644032e+00 -1.102589190943938036e+00
7.890128021407105230e+00 -2.160803105375799227e+00 -1.096633836153336095e+00
7.939850925447031749e+00 -2.215697803662215026e+00 -1.105327551593908497e+00
7.996130008473727457e+00 -2.299069400040071542e+00 -1.116004417963563533e+00
7.956985371714616839e+00 -2.283976017475710663e+00 -1.110218526154940433e+00
7.989501352129853018e+00 -2.306931163913979788e+00 -1.115423559413688759e+00
7.989691601099464080e+00 -2.285046487427185635e+00 -1.114610867307743947e+00
7.926216572973664221e+00 -2.370161799932760882e+00 -1.109466611082727594e+00
7.991341620905807019e+00 -2.305726844477743231e+00 -1.115622279646209858e+00
7.933389317824919296e+00 -2.355093431912661295e+00 -1.109824184478454656e+00
7.916361279484279478e+00 -2.412493423307121354e+00 -1.109856234353949311e+00
7.917958203952199625e+00 -2.397037198510226119e+00 -1.109442937903031945e+00
7.883221869883459298e+00 -2.465998539322709071e+00 -1.107648863951508522e+00
7.849589297620825690e+00 -2.510246694242203258e+00 -1.105047166436185835e+00
7.889792272483061808e+00 -2.459645071174530351e+00 -1.108258202360888234e+00
7.864421404701978702e+00 -2.488262495562541421e+00 -1.106085517751284719e+00
7.849340025567036250e+00 -2.571784506440142337e+00 -1.107645082838447204e+00
7.816473765104730909e+00 -2.615879147488159084e+00 -1.105235482883234033e+00
7.847707976898087523e+00 -2.558792904094279841e+00 -1.106871917585292575e+00
7.813837086321726133e+00 -2.633878135910871610e+00 -1.105688260364824371e+00
7.841233746537843885e+00 -2.586069581524125915e+00 -1.107197533175719117e+00
7.813593010068988320e+00 -2.637035344885614307e+00 -1.105796728830501729e+00
7.774278579743702622e+00 -2.702976834278005835e+00 -1.103595986847392796e+00
7.803902293036007798e+00 -2.676110736154088343e+00 -1.106268590897497406e+00
7.810170528033306248e+00 -2.627111556870459275e+00 -1.104908922273197591e+00
7.334293655947222490e+00 -3.488476682079981739e+00 -1.088438787342521863e+00
7.321622444953808539e+00 -3.537288546496871966e+00 -1.089789813541775398e+00
7.321998839573299556e+00 -3.553270839817108229e+00 -1.090793884691004134e+00
7.337407171063283329e+00 -3.500518494374126544e+00 -1.089546571266101882e+00
7.329524984695714451e+00 -3.533854258655721559e+00 -1.090565015186150566e+00
7.358456854622877685e+00 -3.625942368335038690e+00 -1.099780393803557743e+00
7.344475960505479684e+00 -3.643322716200140476e+00 -1.099113254424332498e+00
7.341610957480763311e+00 -3.593767878033003349e+00 -1.095713091150063656e+00
7.321438921441105308e+00 -3.662109198666904764e+00 -1.097408671465880614e+00
7.317733234217487670e+00 -3.679100575978587528e+00 -1.098009094071551228e+00
7.317684266857951592e+00 -3.684009556248341255e+00 -1.098310319239952593e+00
7.326368119916257804e+00 -3.755090325609451885e+00 -1.103859416093722068e+00
7.323240376835649101e+00 -3.817327403354055182e+00 -1.107443610179195348e+00
7.320573954748834211e+00 -3.733327222897897979e+00 -1.101764054009615412e+00
7.321433416900522850e+00 -3.822086013550073158e+00 -1.107525991164936663e+00
7.291901364111626371e+00 -3.851454787358232323e+00 -1.105791476126698036e+00
7.256241829092161311e+00 -3.916175915321826295e+00 -1.105651215658863373e+00
7.291840314455538596e+00 -3.851496440309238434e+00 -1.105786677354307468e+00
7.257819693663310368e+00 -3.910269715029208282e+00 -1.105456855309935094e+00
7.200713967358582934e+00 -3.935096708222375117e+00 -1.100128662732291929e+00
7.188556557462885799e+00 -3.945879387132571914e+00 -1.099366567067932898e+00
7.192385786634044820e+00 -3.937826633162496481e+00 -1.099293321763518572e+00
7.152304155562259069e+00 -4.031312303826950050e+00 -1.100732828032874533e+00
7.187630730247192012e+00 -3.950072794407045063e+00 -1.099535411644974259e+00
7.154338399539681426e+00 -4.028133289188415844e+00 -1.100763700192677774e+00
7.156582521240935968e+00 -4.060657109749635119e+00 -1.103262061747862122e+00
7.160958667057517602e+00 -4.100640760460349199e+00 -1.106537724087417018e+00
7.157969611018785372e+00 -4.068624988385148633e+00 -1.103976327003463043e+00
7.147848957952347426e+00 -4.126837128458675785e+00 -1.106776124700035169e+00
7.126394910563822904e+00 -4.156688449521476869e+00 -1.106279983182493210e+00
7.135780660841132494e+00 -4.146801988520965487e+00 -1.106713036958499430e+00
7.144573491229785134e+00 -4.122800435494034410e+00 -1.106115318580800810e+00
5.412122318552109235e+00 -5.966655069738929562e+00 -1.079254612231698385e+00
5.408969790385627086e+00 -5.957918371829942217e+00 -1.078064619662060464e+00
5.389434379888422555e+00 -5.977422703873027210e+00 -1.078249666204477153e+00
5.281143488793466290e+00 -5.938562576368910939e+00 -1.064188808512806173e+00
5.226024031085239940e+00 -5.943975914702522623e+00 -1.059680325630628417e+00
5.222303751953290885e+00 -5.983924444970347700e+00 -1.063529071775917823e+00
5.238832944902582334e+00 -5.940228508019467668e+00 -1.060467423972663470e+00
5.204862632554011270e+00 -5.996703129479326044e+00 -1.063262730778546938e+00
5.202092728724547754e+00 -6.006777523589917678e+00 -1.064065554031018213e+00
5.206522373637709755e+00 -5.988857617023006341e+00 -1.062592487683043929e+00
5.155427996464378104e+00 -6.012360730997881930e+00 -1.060423636046620155e+00
5.196348415728690995e+00 -5.964968457424132176e+00 -1.059172640175733759e+00
4.973852102545802900e+00 -5.911674401222257735e+00 -1.033430455881392263e+00
4.929141238228969435e+00 -5.903648191348503715e+00 -1.028600926748371336e+00
4.939412208020750761e+00 -5.911312541762581141e+00 -1.030314904308112567e+00
4.864743180758956953e+00 -5.896241959945076161e+00 -1.022076303066148162e+00
4.844420578096007013e+00 -5.899281512840810038e+00 -1.020610320365304968e+00
4.928228418754658335e+00 -5.910244941711004785e+00 -1.029204501215679413e+00
4.850014033199687269e+00 -5.897413804538716775e+00 -1.020901970047740859e+00
4.786457033979454323e+00 -5.996769560326711712e+00 -1.026080095627277089e+00
4.793113447039432984e+00 -6.025103481177905174e+00 -1.029724263306652787e+00
4.832262582616926316e+00 -5.975572867237419317e+00 -1.027761239959550821e+00
4.808749461669693304e+00 -6.028671737018518328e+00 -1.031467404551679179e+00
4.720353332011464786e+00 -5.999917111988176011e+00 -1.020708827177874145e+00
4.681257149773333737e+00 -5.987977227028993710e+00 -1.016050227593829014e+00
4.707851190031841604e+00 -5.995247794450813572e+00 -1.019123749111305655e+00
4.687926148549385275e+00 -5.989153620645010889e+00 -1.016748512166273155e+00
4.622304271015087451e+00 -6.045755913326852138e+00 -1.017389072951029760e+00
4.585958616390837683e+00 -6.052058269437822879e+00 -1.015030935155604830e+00
4.624984569637522469e+00 -6.001811862032117695e+00 -1.012776039379997606e+00
4.621620857140853467e+00 -6.049134573317194175e+00 -1.017703665424237958e+00
4.614887541002820726e+00 -5.992921551254270618e+00 -1.010949378940455778e+00
4.533428871854223274e+00 -6.144405354480332093e+00 -1.020935505708993274e+00
4.571916187946813537e+00 -6.086021773596951512e+00 -1.017622786745205010e+00
4.489936255252765740e+00 -6.166967941097817096e+00 -1.019891362589617989e+00
4.529012399175200265e+00 -6.143762277872677480e+00 -1.020498650543960828e+00
4.484761847503072829e+00 -6.171859391309126863e+00 -1.020015989813818358e+00
4.438879068268388295e+00 -6.170379102221520640e+00 -1.016116930860025525e+00
4.418380066166124109e+00 -6.175048143398395695e+00 -1.014981626050203811e+00
4.443880107921791556e+00 -6.170836632374905761e+00 -1.016574956686764564e+00
4.373051054673863014e+00 -6.234907304339627032e+00 -1.018129869615222338e+00
4.413036265342792142e+00 -6.190793662548000675e+00 -1.016333141568370069e+00
4.398526209388376351e+00 -6.224627694087942587e+00 -1.018996472505764084e+00
4.332454832836009295e+00 -6.285873691299633137e+00 -1.020719751758221605e+00
4.341295484989798226e+00 -6.270114520335970276e+00 -1.019620695272220212e+00
4.318092575869711069e+00 -6.287684656097266789e+00 -1.019799533080509635e+00
4.325432132272052144e+00 -6.287091125255350299e+00 -1.020307543008394990e+00
4.271882558513085293e+00 -6.314015369261759325e+00 -1.019207103089240674e+00
4.253929752676564924e+00 -6.362276479485741376e+00 -1.023378304241654879e+00
4.272719837962306144e+00 -6.311040801039183634e+00 -1.018929773336615829e+00
4.252235506135170873e+00 -6.364942499848645241e+00 -1.023555922082574066e+00
4.232418478638813930e+00 -6.396421883228852856e+00 -1.025670391196222386e+00
4.218599639586196659e+00 -6.420455578634013172e+00 -1.027404827736107196e+00
4.202574493110749820e+00 -6.467102309434478613e+00 -1.031612430607633302e+00
4.180053480807431221e+00 -6.545025865626166173e+00 -1.039018616478462498e+00
4.197544803018800508e+00 -6.493615976267280487e+00 -1.034321849491782075e+00
4.176578781130950269e+00 -6.553932217197766086e+00 -1.039800315395411179e+00
4.189288819541411080e+00 -6.505584653142831186e+00 -1.035114281190543828e+00
3.979915769635136158e+00 -6.422592460931587866e+00 -1.009809249648857765e+00
4.067124361706008884e+00 -6.460838686123490326e+00 -1.020741798437785341e+00
4.047670328739108925e+00 -6.453595668396394203e+00 -1.018444308694354428e+00
3.967957529850746567e+00 -6.415964034523536696e+00 -1.008151521629306435e+00
3.852362228552365764e+00 -6.380792863670073700e+00 -9.956087809365492536e-01
3.900351742147927681e+00 -6.372326551836756892e+00 -9.980670571349681275e-01
3.874334025612350185e+00 -6.368112026220832611e+00 -9.956850961916208220e-01
3.829592325921315155e+00 -6.374448024946356206e+00 -9.932212241758822113e-01
3.732696757006124688e+00 -6.357053873353009976e+00 -9.842685858433879442e-01
3.737707772027627939e+00 -6.323200841940753492e+00 -9.805771358888403233e-01
3.729554670598047572e+00 -6.361759034262194135e+00 -9.846099341074320277e-01
3.699576988501235064e+00 -6.349684273928128952e+00 -9.810628855348836330e-01
3.594172323976372319e+00 -6.311587272923365077e+00 -9.691623072622760349e-01
3.659779009948200379e+00 -6.327661118963903597e+00 -9.756381021383050411e-01
3.631714630053068049e+00 -6.318907654606082502e+00 -9.726390216857653259e-01
3.592223033403135091e+00 -6.385889102774601866e+00 -9.780154340293039095e-01
3.592497786818943162e+00 -6.339893440164528826e+00 -9.724706879764140055e-01
3.569382043631768919e+00 -6.406961645509242409e+00 -9.790316353339746369e-01
3.468839855687209539e+00 -6.329551647466818309e+00 -9.628636437555893046e-01
3.582336051199694893e+00 -6.310161758993483083e+00 -9.681833030336606249e-01
3.459348767255877366e+00 -6.405262547602318612e+00 -9.714617438441346398e-01
3.556620344849185766e+00 -6.410037243510941174e+00 -9.785473780723551451e-01
3.491952360412230227e+00 -6.419249729642777957e+00 -9.753268475485241673e-01
3.482383675784431976e+00 -6.303149664314183553e+00 -9.605434615179955227e-01
3.269013198868372161e+00 -6.390816293752295429e+00 -9.573779710980891977e-01
3.198006144894796066e+00 -6.392632870537046763e+00 -9.531542867282761788e-01
3.269633966982812723e+00 -6.388944056870252020e+00 -9.571853990802736689e-01
3.254367407184555194e+00 -6.432778514560115291e+00 -9.616481712524025394e-01
3.239144713559706901e+00 -6.424345708755720530e+00 -9.596520118361558938e-01
3.232355033661884036e+00 -6.384379436880241343e+00 -9.542857330307417119e-01
3.093197993009062952e+00 -6.545315094094234176e+00 -9.658593670426781630e-01
3.078081769726144223e+00 -6.530872596850342049e+00 -9.631590132994602982e-01
3.093780076181077199e+00 -6.614887560515383846e+00 -9.746378449362016472e-01
3.044848527426316842e+00 -6.660104172640606279e+00 -9.775010383123898805e-01
3.094376416439665434e+00 -6.614969392626536937e+00 -9.746830481623880438e-01
3.037623080803071307e+00 -6.630107017754062859e+00 -9.732824727428209810e-01
3.027147737289658913e+00 -6.670906404379522314e+00 -9.778338012496292642e-01
3.057919419457110433e+00 -6.648616944107990534e+00 -9.768110388041523207e-01
2.941365709183382915e+00 -6.612986465397237446e+00 -9.656094102656239686e-01
2.898592576220129668e+00 -6.650108033831444665e+00 -9.679493286562944609e-01
2.927144089281659589e+00 -6.623016364651046928e+00 -9.660850113300600839e-01
2.907618699720858846e+00 -6.637284844682207918e+00 -9.668031073161600375e-01
2.888999271296393889e+00 -6.656114589290132777e+00 -9.681708780855566854e-01
2.842241184229049367e+00 -6.657640446817437052e+00 -9.657969613267868292e-01
2.839519119815845816e+00 -6.656650846152936118e+00 -9.655218678217691863e-01
2.860908102253453933e+00 -6.642715569556742139e+00 -9.649274746089490096e-01
2.883564538372909714e-01 -6.924986993023543036e-01 -6.423850424567255357e-02
2.920901456453975364e-01 -6.925363914028340728e-01 -6.444382453322561322e-02
2.843415703576596676e-01 -6.924347738028632238e-01 -6.401729628223189195e-02
2.889230564872731777e-01 -6.925046136279359166e-01 -6.426966594790173293e-02
2.811477912260280099e-01 -6.932890467452563765e-01 -6.395950868838895520e-02
2.828229644920733366e-01 -6.924081571418041481e-01 -6.393358144777204488e-02
2.745267572384912924e-01 -6.957171892647695532e-01 -6.393082904858599091e-02
2.806820460577373888e-01 -6.936052801875652873e-01 -6.397598430870110597e-02
2.775635119828157027e-01 -6.952102237849169253e-01 -6.402113278701308807e-02
2.728847589634028625e-01 -6.977869005817917136e-01 -6.411531313723289882e-02
2.698014728177726140e-01 -7.009173536031869656e-01 -6.436574277879923700e-02
2.717121999349251249e-01 -6.999843938578257374e-01 -6.434054344186725116e-02
2.686992660596672633e-01 -7.006836774558269365e-01 -6.428064029242794297e-02
2.692633283996171967e-01 -6.982267075467074591e-01 -6.399158489760911617e-02
2.284073719386092716e+00 -6.821867362093562370e+00 -9.595678125596409647e-01
2.248034967848679955e+00 -6.789833337857803741e+00 -9.537852158204978004e-01
2.242653701632266738e+00 -6.821328799569739587e+00 -9.576791185014911223e-01
2.216840311365931626e+00 -6.817856489060517333e+00 -9.561199199921649461e-01
2.173020367201767389e+00 -6.801902713283320523e+00 -9.521249136852644179e-01
2.233296968965649665e+00 -6.816408350257402660e+00 -9.566231835258712790e-01
2.159521977894544698e+00 -6.808137067291583300e+00 -9.523842132980414599e-01
2.218786150665724932e+00 -6.808779110002118884e+00 -9.549858093612675347e-01
2.145284178399892383e+00 -6.816854065455607348e+00 -9.529435748545933560e-01
2.130042653374212946e+00 -6.826221769813492379e+00 -9.535489024604134611e-01
2.108625424300708762e+00 -6.839768711876440754e+00 -9.544687507396293347e-01
2.118929834550447922e+00 -6.833510324470505992e+00 -9.540730237132220015e-01
1.939097340329520192e+00 -6.837673132792192021e+00 -9.475182929852633551e-01
2.051015500278542625e+00 -6.845757559745097254e+00 -9.529511892242328308e-01
1.899419824204489959e+00 -6.845687069496577237e+00 -9.470878319729771899e-01
1.880954871034262732e+00 -6.848603919876260271e+00 -9.468088938747517558e-01
1.852980260520371569e+00 -6.877094104850073997e+00 -9.495964053289582818e-01
1.904894285048986280e+00 -6.838621685523162519e+00 -9.463436239788324267e-01
1.826844641261978319e+00 -6.874981049685775503e+00 -9.483697884125135147e-01
1.868382574100911020e+00 -6.878408241779983889e+00 -9.503288006052159620e-01
1.797907955402378688e+00 -6.878509746153924631e+00 -9.478231120727115266e-01
1.794337588209119705e+00 -6.880079141207136040e+00 -9.479124598109267552e-01
2.077757636567318517e-02 2.722719345699946114e+00 -3.950349250172792703e-01
1.412940254264909157e-02 2.726214158630384965e+00 -3.955900018912164584e-01
1.668998751132804922e-02 2.723712468536044096e+00 -3.951897035542182857e-01
2.872083242691215316e-02 2.723065255043619626e+00 -3.951014385512778282e-01
5.894702158633770284e-02 2.734812174212764013e+00 -3.970571066695993134e-01
3.948171713095286611e-02 2.727986665293132607e+00 -3.959101758217648537e-01
6.256320246646712713e-02 2.735396849496879224e+00 -3.971647041692963898e-01
4.326867577147373856e-02 2.729596355663754803e+00 -3.961761856508158042e-01
6.670609201452772086e-02 2.736022627257859163e+00 -3.972811630814432893e-01
8.880725512276280154e-02 2.742959649584280957e+00 -3.984904324961645039e-01
1.060166718266633834e-01 2.747336942220226064e+00 -3.992879325578141403e-01
7.652287869001779541e-02 2.737647172456302957e+00 -3.975802763990881061e-01
1.232672307292971559e-01 2.746006312535798966e+00 -3.991902087924922293e-01
1.084009310989686309e-01 2.747803228966890554e+00 -3.993765834595559561e-01
1.148200169181014391e-01 2.747366306041973072e+00 -3.993493663784966619e-01
1.387604324735446648e-01 2.750306262718296146e+00 -3.999958155119495706e-01
1.532335504638122070e-01 2.752516286354885100e+00 -4.004719043493101260e-01
1.304756187417731861e-01 2.746916399827049382e+00 -3.993888708892560091e-01
1.509658741748898525e-01 2.752509619287359044e+00 -4.004507598013644643e-01
1.655382944722918193e-01 2.755529629618982401e+00 -4.010664786538455928e-01
1.794508405305478282e-01 2.764423656892729841e+00 -4.026242996280129938e-01
1.616260308916228350e-01 2.752929129866510838e+00 -4.006127212159392714e-01
1.878784914258668504e-01 2.765788518116508943e+00 -4.029333081696626628e-01
1.992492007252352204e-01 2.766083538891299209e+00 -4.031066337157560020e-01
1.993842282249257691e-01 2.766041485889895402e+00 -4.031015161164130944e-01
2.146802122508409960e-01 2.763706689297747321e+00 -4.029112079845669769e-01
2.317625598377592577e-01 2.778517153723725652e+00 -4.054920944174709718e-01
2.291709900403733624e-01 2.776583650778718937e+00 -4.051499664660533906e-01
2.387866232142090706e-01 2.781050358166086589e+00 -4.059924761997336651e-01
2.246604337946309371e-01 2.769464691294313496e+00 -4.039625786423251541e-01
3.033689385925319448e-01 2.813017505595932555e+00 -4.120776474035402481e-01
3.033187748244452475e-01 2.821280528492648987e+00 -4.133996216933494838e-01
3.000438161326123288e-01 2.813366066942218691e+00 -4.120776474035402481e-01
3.093076169725608171e-01 2.817654823534277320e+00 -4.129196895705288251e-01
3.153579279848297001e-01 2.822600501490515779e+00 -4.138129700428052615e-01
2.902445516214143262e-01 2.816292886926030636e+00 -4.123817511819768966e-01
5.293050498464648257e+00 8.589750702202202604e+00 -1.573801562025327838e+00
5.448499191080739656e+00 8.519167625867602567e+00 -1.577571526399344393e+00
5.505710612513539104e+00 8.450821853117906457e+00 -1.573141405414514971e+00
5.354218855279975209e+00 8.484774214163868677e+00 -1.564684324993664610e+00
5.400905344512763051e+00 8.443323126163974734e+00 -1.563035675442255412e+00
5.301059303743555162e+00 8.634583483082700184e+00 -1.580651134576484873e+00
6.582003684602157456e+00 7.646924700939316644e+00 -1.573688840877811579e+00
6.647285830655997430e+00 7.592186419049440360e+00 -1.573971072728352238e+00
6.703985884924632543e+00 7.541627663277258087e+00 -1.573840971231312169e+00
6.622015900341114758e+00 7.604219453308487253e+00 -1.572722929470732112e+00
6.687357378898632021e+00 7.551473721008354900e+00 -1.573259468987998622e+00
6.717840714750744624e+00 7.543813144115821601e+00 -1.575577667443551100e+00
6.815252282688391894e+00 7.560837349921477824e+00 -1.588005984857015385e+00
6.762338084738506616e+00 7.555885399166044181e+00 -1.581764441127757381e+00
6.809883676857500845e+00 7.468606612184617966e+00 -1.576494614366946267e+00
6.808348351376856122e+00 7.475265251264943345e+00 -1.577117713159194246e+00
6.891111306503320932e+00 7.467158096107592513e+00 -1.585108327901416425e+00
6.890661920438192034e+00 7.467373786288676207e+00 -1.585084947009502754e+00
6.918466179750533129e+00 7.411784815650681146e+00 -1.581593966720135525e+00
6.920423083141495901e+00 7.407091743082538038e+00 -1.581257044393553635e+00
6.909842384304894836e+00 7.349136222035384414e+00 -1.573341297587645737e+00
6.894155309450431979e+00 7.407423675265754071e+00 -1.578457111984284289e+00
6.827605750294937437e+00 7.129498468935604016e+00 -1.538785915706221807e+00
6.845597727043504221e+00 7.171930233093662288e+00 -1.545687519560933199e+00
6.853505281426479634e+00 7.077138556913103784e+00 -1.535627843005359372e+00
6.891600903710192405e+00 7.253004283162567845e+00 -1.560169474567290715e+00
7.451300554562986456e+00 7.267079827346839771e+00 -1.624680161014311786e+00
7.469722856152926305e+00 7.313076748864633991e+00 -1.631938480111997825e+00
7.442239083836476254e+00 7.305621506589904612e+00 -1.627950337768932831e+00
7.514800615231703951e+00 7.265543835990807331e+00 -1.631796509788827843e+00
7.661227252132682075e+00 7.332749375218146959e+00 -1.656131399504948476e+00
7.685755578119920273e+00 7.282157946987271480e+00 -1.653419904778132610e+00
7.657657588019430861e+00 7.338549964537107506e+00 -1.656357959135483782e+00
7.714845162788040334e+00 7.225513111736744598e+00 -1.650565062304327535e+00
7.759208352473092596e+00 7.177025662977755793e+00 -1.650474945981385000e+00
7.698617139143411059e+00 7.266335566956239056e+00 -1.653149816087298607e+00
7.754930073585827088e+00 7.181226976692449249e+00 -1.650431165702292535e+00
7.728651136374045549e+00 7.226625006570891685e+00 -1.652327835999209293e+00
2.355608507967317244e+00 -1.600151926421626847e-01 -3.372692061263039554e-01
2.312932366092781855e+00 -3.187679519960462393e-01 -3.329758979686722742e-01
2.332410135156993913e+00 -2.976794171071519557e-01 -3.356413391257909717e-01
2.369005772732926562e+00 -2.627480678966641614e-01 -3.717708981425383863e-01
2.366125962867686727e+00 -2.570911698476457952e-01 -3.401990631782446650e-01
2.342044794455850454e+00 -3.113838793768547997e-01 -4.367900103324597882e-01
7.393519993354460418e+00 -2.018547304816282750e+00 -1.185620299118212762e+00
7.412119661801360060e+00 -2.036172051917199521e+00 -1.189256556306893975e+00
7.393415510125587176e+00 -2.063008913389745125e+00 -1.187498668415568615e+00
7.421831023902779378e+00 -1.998241413934442656e+00 -1.189146731281855551e+00
7.392287875407202336e+00 -2.072581366490727994e+00 -1.187736703530040794e+00
7.392172187148727147e+00 -2.027624862140991358e+00 -1.185798031714395906e+00
7.363067351026324481e+00 -2.157806017878252103e+00 -1.186999057606534125e+00
7.380486931495114256e+00 -2.103972002255181106e+00 -1.187288311320005230e+00
7.366799615550856828e+00 -2.145868949001473958e+00 -1.187041015577601888e+00
7.345242570101850887e+00 -2.192634799655693190e+00 -1.185848210439405914e+00
7.337823228297770228e+00 -2.213298519579725898e+00 -1.185662453196882238e+00
7.352744938756149651e+00 -2.178041742797268032e+00 -1.186335434192893334e+00
7.334359036964841927e+00 -2.226732603150030965e+00 -1.185755579944922200e+00
7.313438343159958777e+00 -2.266715927497960248e+00 -1.184431795805144683e+00
7.286087387725115327e+00 -2.324918122784304320e+00 -1.183048003100366508e+00
7.298903849155280454e+00 -2.285361797200875955e+00 -1.183093480729523472e+00
7.285306839526940692e+00 -2.327383605026422053e+00 -1.183048003100366508e+00
7.294005224306994606e+00 -2.369031821559120843e+00 -1.186418917857944288e+00
7.293733301931881741e+00 -2.367964746061720138e+00 -1.186324994118618470e+00
7.255163747133516416e+00 -2.402836349179913622e+00 -1.182200031186655842e+00
7.208525638402079494e+00 -2.431951362619557688e+00 -1.176600327961565107e+00
7.234191694486516333e+00 -2.411780548759034914e+00 -1.179462379313260811e+00
7.215080051045659637e+00 -2.426645926145682974e+00 -1.177323046409063378e+00
7.197800394803725688e+00 -2.442520464738087593e+00 -1.175517643353963582e+00
6.073648241322341157e+00 -4.483173091434887070e+00 -1.167211474072156197e+00
6.043969666012705133e+00 -4.498571019339034471e+00 -1.164882525660127621e+00
6.075578466782612708e+00 -4.478704140756271102e+00 -1.167033735637591052e+00
6.042576356225057843e+00 -4.522711264821826838e+00 -1.166996453252324262e+00
5.985316602541682407e+00 -4.533959712488954352e+00 -1.160759669012385364e+00
6.036972583435745499e+00 -4.523754496428552763e+00 -1.166379729381793240e+00
5.906876958034027680e+00 -4.575480840957471429e+00 -1.154834383933569963e+00
5.958632794986029602e+00 -4.540388317778710991e+00 -1.157984172592184224e+00
5.920944434023290626e+00 -4.561979631209258201e+00 -1.155299266886553600e+00
5.984063437981128608e+00 -4.537428495334921763e+00 -1.160941977114491319e+00
5.778661085990091095e+00 -4.565550281989733783e+00 -1.137702325320565144e+00
5.888880142915998483e+00 -4.573329903023444665e+00 -1.152349724256300556e+00
5.787309242167647305e+00 -4.557134160191685268e+00 -1.137953305280231087e+00
5.742369945352242766e+00 -4.575615052249612624e+00 -1.134152353410311509e+00
5.607412341834475455e+00 -4.559908591574713732e+00 -1.115756567373385577e+00
5.609039420864819547e+00 -4.614923989025631279e+00 -1.121537729685419871e+00
5.635870078071812728e+00 -4.553285799698580050e+00 -1.118627313810576229e+00
5.597926584306694764e+00 -4.578501154375465454e+00 -1.116461127091057826e+00
5.591711804033045574e+00 -4.654358376632520944e+00 -1.123419196437300149e+00
5.600568788679291643e+00 -4.605269681511429347e+00 -1.119504380252078324e+00
5.588489359875815410e+00 -4.663107666578458321e+00 -1.123917090053854650e+00
5.556651929733678053e+00 -4.682555108772045394e+00 -1.122015476279942359e+00
5.549941968041804508e+00 -4.685538136299180145e+00 -1.121501112348184170e+00
5.499118133053242374e+00 -4.684207924467044926e+00 -1.115163558268446709e+00
5.460281365418854449e+00 -4.679811040769176422e+00 -1.109977234208168628e+00
5.513947613536315906e+00 -4.686123660995967555e+00 -1.117168636889148914e+00
5.460935846377495295e+00 -4.684519907646381043e+00 -1.110548535208693677e+00
5.534696674295918051e+00 -4.694395160286870983e+00 -1.120557837839278648e+00
5.145116436146279781e+00 -4.686478430700367070e+00 -1.072894950820211912e+00
5.128216505016386151e+00 -4.566828687467758385e+00 -1.058073336202099757e+00
5.216196317726051745e+00 -4.788842648995145446e+00 -1.092351357105619591e+00
5.181333842892519748e+00 -4.703879822450378612e+00 -1.079057072598214040e+00
5.175398545478753221e+00 -4.701786584323731866e+00 -1.078128470306910947e+00
5.144866594899951018e+00 -4.731587074406338189e+00 -1.077754702064831926e+00
5.163212527189367407e+00 -4.805006307416683775e+00 -1.087871868221567562e+00
5.222874087731073089e+00 -4.777351073893330913e+00 -1.091902245732979893e+00
5.124964480746261763e+00 -4.804729405610380866e+00 -1.083369098498700112e+00
5.164417849228826185e+00 -4.805015600167187984e+00 -1.088014192480706521e+00
5.062707734528191672e+00 -4.811297171044734533e+00 -1.076847543257259288e+00
5.141371678162916403e+00 -4.804838967741879685e+00 -1.085293693881015153e+00
5.076383927817197161e+00 -4.805557215791521841e+00 -1.077799411721931166e+00
5.006935294642562262e+00 -4.818337045840423549e+00 -1.071177042333365526e+00
4.993327544034863230e+00 -4.816373909828030264e+00 -1.069391275102553385e+00
4.904748771449812139e+00 -4.802043445906386765e+00 -1.057627915938968766e+00
4.883572387293910744e+00 -4.820108614913179323e+00 -1.057239803830563929e+00
4.957774904701356178e+00 -4.811088311430022024e+00 -1.064711616282381312e+00
4.890206886046809309e+00 -4.800185937976599426e+00 -1.055755425589913976e+00
4.912897044549652925e+00 -4.830567483391635442e+00 -1.061771680734281631e+00
4.783449116195817474e+00 -4.816899537916345508e+00 -1.045529177779120911e+00
4.771016241504591804e+00 -4.835395874198558097e+00 -1.046248708125269600e+00
4.762366018418960678e+00 -4.869650498586196363e+00 -1.049175742016461799e+00
4.773983477772050676e+00 -4.858703233855663939e+00 -1.049222280930028450e+00
4.763187127701360879e+00 -4.868987775777790183e+00 -1.049191627388062154e+00
4.731515894522839716e+00 -4.909032613161860681e+00 -1.050258787268846028e+00
4.710572832860966841e+00 -4.956221606628197662e+00 -1.053395701626395509e+00
4.730158066812149009e+00 -4.912227820804169198e+00 -1.050476018944996870e+00
4.714188086432323566e+00 -4.948318111727727953e+00 -1.052878935040330033e+00
4.669326476204228804e+00 -4.968993114957959811e+00 -1.050348485214654071e+00
4.700340691527730819e+00 -4.969791160690790299e+00 -1.053841568202200207e+00
4.650816169289804236e+00 -5.022096350509545282e+00 -1.054539619893275271e+00
4.647710187944857907e+00 -5.043910477435628259e+00 -1.056765716409899136e+00
4.651463551316173728e+00 -5.028523028352440249e+00 -1.055363357176599681e+00
4.636967139851424946e+00 -5.058954058105292972e+00 -1.057376586285968090e+00
4.628931902950482069e+00 -5.127985283030231045e+00 -1.064679527579962759e+00
4.613811591658078193e+00 -5.179586495216378594e+00 -1.069209890801619434e+00
4.629180970127591443e+00 -5.136746808343129800e+00 -1.065744806266368583e+00
4.603414972684729989e+00 -5.199983636834991430e+00 -1.070549389824174913e+00
4.623571841179686892e+00 -5.152819311332939911e+00 -1.067061345759601210e+00
4.593895494796146117e+00 -5.217763503052040619e+00 -1.071671037190673248e+00
4.579667991922669934e+00 -5.251495550283951985e+00 -1.074232512063948208e+00
4.565008433971374124e+00 -5.269590019091738853e+00 -1.074877251844636117e+00
4.576198187585978516e+00 -5.260122939763618000e+00 -1.074906760366638014e+00
4.525158579693610683e+00 -5.283042173312059830e+00 -1.072345433015212901e+00
4.566967422392209208e+00 -5.269028526056519723e+00 -1.075014001203577152e+00
4.519942836230713468e+00 -5.288151411583069006e+00 -1.072426301251284464e+00
4.466661207514398768e+00 -5.300570513366143821e+00 -1.068426072863641441e+00
4.491782087443858984e+00 -5.308341761365134026e+00 -1.071965552086775020e+00
4.461808001348579467e+00 -5.284376289401325089e+00 -1.065959396869638809e+00
4.263833665083120117e+00 -5.256345305422428282e+00 -1.042293312249432891e+00
4.208486807819895148e+00 -5.238971829021765281e+00 -1.034582325164993932e+00
4.255969155405860072e+00 -5.256028400492319896e+00 -1.041461499356972409e+00
4.231392254347089654e+00 -5.254232210088431110e+00 -1.038763227467408345e+00
4.150109243345471377e+00 -5.242910118095463368e+00 -1.029237408190294190e+00
4.229661879069644748e+00 -5.253597304020453329e+00 -1.038510899464370585e+00
4.154619639040925350e+00 -5.235287442740959030e+00 -1.028728240865165455e+00
4.122709899544921619e+00 -5.259296223070801801e+00 -1.028582289585983967e+00
4.073412887167812357e+00 -5.237274304216197329e+00 -1.020951441751210442e+00
4.075099698559342620e+00 -5.229586333392316710e+00 -1.020155038289021876e+00
3.810625212688272256e+00 -5.366363124616882807e+00 -1.012441675589450307e+00
3.847687750834807296e+00 -5.322226165927814279e+00 -1.010156005145676827e+00
3.810333393719764761e+00 -5.372903342838919905e+00 -1.013264169899329215e+00
3.798590237351361143e+00 -5.416666384420369518e+00 -1.017945680689367638e+00
3.853249951349358327e+00 -5.384902680557429377e+00 -1.018815846140710857e+00
3.785652682278762615e+00 -5.398574106817197737e+00 -1.014364313856146893e+00
3.746132632374302940e+00 -5.446726730692627250e+00 -1.017070447901647245e+00
3.756214160438409611e+00 -5.429822009061973098e+00 -1.015759368443562849e+00
3.718712757090993914e+00 -5.483874083687286571e+00 -1.019504729475184446e+00
3.734200105616407139e+00 -5.469770562048585916e+00 -1.019029986936924370e+00
3.711620930181370070e+00 -5.489197163798596790e+00 -1.019573562881223472e+00
3.687196537415605935e+00 -5.502462757544289929e+00 -1.019151739957911973e+00
3.670112832256351432e+00 -5.508276092409108315e+00 -1.018406100354112276e+00
3.646001581735625052e+00 -5.505937544538827666e+00 -1.015959338619408570e+00
3.623612870312106882e+00 -5.496361500199218320e+00 -1.012708087229789777e+00
3.538544175730693908e+00 -5.500838682136039104e+00 -1.005892809595899662e+00
3.463494804917209624e+00 -5.501684347823181831e+00 -9.995439053843440114e-01
3.560040474025321977e+00 -5.493686133361529222e+00 -1.006798910061999397e+00
3.428313979001433420e+00 -5.506666689222377009e+00 -9.972353694222909626e-01
3.484471841595704333e+00 -5.504811184959250703e+00 -1.001762549476737041e+00
3.398999242656903785e+00 -5.527326277949040190e+00 -9.975792412024653277e-01
3.442588011875533205e+00 -5.504367626033817018e+00 -9.981336850953580475e-01
3.396382144457970931e+00 -5.529874451730838025e+00 -9.977065891195517899e-01
3.348315751888250702e+00 -5.518799786487313064e+00 -9.921881177082875203e-01
3.349117684176731391e+00 -5.519148863836345953e+00 -9.923024943731530989e-01
3.350093281789082944e+00 -5.508946754757474196e+00 -9.909989029445224196e-01
3.356238846976286716e+00 -5.612029859357107853e+00 -1.005625573265062744e+00
3.349039369405568678e+00 -5.621479519462589280e+00 -1.006323721602439214e+00
3.212673202642100989e+00 -5.571693334241518691e+00 -9.884215586349722749e-01
3.293773878768410768e+00 -5.531442152130098933e+00 -9.894603728240315421e-01
3.185870781931279261e+00 -5.563721934796072688e+00 -9.851787279079536885e-01
3.166286525356706072e+00 -5.576545835521741878e+00 -9.854171565505515096e-01
3.156521067601187891e+00 -5.599238541047019346e+00 -9.878152965496087567e-01
3.153534162436088639e+00 -5.635784386682709091e+00 -9.926889542439794045e-01
2.948269418519517959e+00 -5.780526762835433985e+00 -9.976070680027931958e-01
2.951720552180679746e+00 -5.812902717362090854e+00 -1.002489256439895948e+00
2.968848723965601177e+00 -5.785905907983302399e+00 -9.998722282800189820e-01
2.930360432358660283e+00 -5.777753904004423013e+00 -9.959088109306487580e-01
2.892536678903481207e+00 -5.838902765155357777e+00 -1.001947479762123061e+00
2.923447711029770524e+00 -5.811275570017674141e+00 -1.000201661845789403e+00
2.844463571381669276e+00 -5.848799701925922356e+00 -9.999786149719959161e-01
2.904952464637445608e+00 -5.838881800773972230e+00 -1.002826989505893218e+00
2.848902894164416111e+00 -5.847273422791065656e+00 -1.000070813575093087e+00
2.844292562618228715e+00 -5.850552337103168021e+00 -1.000222957331154516e+00
3.406115978032915326e-01 -6.281224794913310205e+00 -9.671223530040115035e-01
8.634080181796841558e-01 -6.272928235119819007e+00 -9.733418308093920723e-01
1.212318361296742808e-01 -6.264449350442055753e+00 -9.618838126877353734e-01
1.395144816509800156e-01 -6.273783104989785642e+00 -9.634571145099496414e-01
6.402449929674336460e-02 -6.253017393598238272e+00 -9.599055771937285986e-01
1.654716342047927724e-01 -6.279828817738416724e+00 -9.644969648564549747e-01
9.674526256744664376e-02 -6.255974627110778563e+00 -9.604436977175474510e-01
1.607430375807041567e-01 -6.279353743506068675e+00 -9.644112940723381655e-01
1.611328280847177524e-02 2.694244033496236757e+00 -4.706338182358585920e-01
4.008644685349106035e-02 2.689151053428774585e+00 -4.697126361115032678e-01
2.933256791200671010e-02 2.688903810998878541e+00 -4.696397274375455066e-01
1.792627918546985458e-02 2.693150342605325598e+00 -4.704281105374128469e-01
2.927810747890537829e-02 2.688904481896282395e+00 -4.696397274375455066e-01
5.321907407253750194e-02 2.686411501374828426e+00 -4.692358973648441123e-01
4.502151203824960451e-02 2.688033596521538282e+00 -4.695153583323684043e-01
