# X Y Z
5.605757810963685195e+00 8.092088682357225782e-01 -1.328470483686497561e+00
5.585582690342936196e+00 7.713582720331993992e-01 -1.322352378219857627e+00
5.568046084013860586e+00 7.341649411100908962e-01 -1.316940207999368617e+00
5.569552734995317778e+00 6.996248931040169872e-01 -1.316234272753217693e+00
5.540925650603470309e+00 6.615436897557822604e-01 -1.308233673296842481e+00
5.500452169074797837e+00 6.225370511948790098e-01 -1.297409332855864239e+00
5.458743811026371517e+00 5.839495147067278458e-01 -1.286349680666168949e+00
5.454487352397705990e+00 5.496703649875633868e-01 -1.284467186676433448e+00
5.452919043848045710e+00 5.157378821776964495e-01 -1.283290627932848871e+00
5.468567601448679483e+00 4.833729600740719889e-01 -1.286349680666168949e+00
5.477242838716963824e+00 4.502829072397686039e-01 -1.287761551158470352e+00
5.440166392346846180e+00 4.136745598457841067e-01 -1.278113769461076688e+00
5.436784607859239671e+00 3.798843535976901831e-01 -1.276701898968775284e+00
5.447743177283030036e+00 3.470674415388120271e-01 -1.278819704707227389e+00
5.478880849101997796e+00 3.152880037593101537e-01 -1.285879057168735073e+00
5.461298776271918953e+00 2.806808419037123414e-01 -1.281172822194396765e+00
5.509524212034254909e+00 2.492399985430289733e-01 -1.292467786132808882e+00
5.493468104005238217e+00 2.147588773197347534e-01 -1.288232174655904227e+00
5.490796763061679187e+00 1.809223599366046875e-01 -1.287290927661036699e+00
5.492775108757887104e+00 1.472533944685479879e-01 -1.287526239409753526e+00
5.441101989793322602e+00 1.125013987276443778e-01 -1.274819404979039783e+00
5.436830721120132104e+00 7.904625121270364430e-02 -1.273642846235455206e+00
5.402225302277275709e+00 4.541687502246226360e-02 -1.265171623281646118e+00
5.405318036055994035e+00 1.227304159819458257e-02 -1.265877558527796820e+00
5.434448877148174262e+00 -2.102797729856384357e-02 -1.272936910989304504e+00
5.448795507586654097e+00 -5.452937445950500894e-02 -1.276466587220058235e+00
5.449330131071746131e+00 -8.797793448966242935e-02 -1.276701898968775284e+00
5.433141126280117916e+00 -1.210548474449840428e-01 -1.272936910989304504e+00
5.429381549430575937e+00 -1.543047063439650646e-01 -1.272230975743153580e+00
5.415705453831942684e+00 -1.871700858447549742e-01 -1.269171923009833725e+00
2.381300953454698721e+00 -1.973696785361404027e-01 -5.357052022591930474e-01
2.399014685397997226e+00 -2.285465817553561374e-01 -5.406467489822482930e-01
2.325486211645956924e+00 -5.143593008815428025e-01 -5.338227082694576575e-01
2.324181011413253284e+00 -5.290531675522174293e-01 -5.342933317668915327e-01
2.323728934946286628e+00 -5.439734916871499237e-01 -5.349992670130422345e-01
2.297677639594309706e+00 -5.527271670052531505e-01 -5.293517850438361760e-01
3.965950218665973193e+00 -2.926974598993048904e+00 -1.150574801656505830e+00
3.899681420918992725e+00 -2.915135162048915429e+00 -1.135985473236056809e+00
3.866233325289103906e+00 -2.927261754266981431e+00 -1.131279238261718501e+00
3.837408434399738777e+00 -2.942640475560031721e+00 -1.127984873779681596e+00
3.790129861570127545e+00 -2.943453145540311233e+00 -1.119043027328438633e+00
3.781922617983470403e+00 -2.974472785479143067e+00 -1.122102080061758489e+00
3.760561439790354843e+00 -2.995197617368745124e+00 -1.121160833066890739e+00
3.721700270200309024e+00 -3.001723893331176285e+00 -1.114807415851533978e+00
3.693432793441349560e+00 -3.016502702037100470e+00 -1.111748363118214122e+00
3.663627533360007682e+00 -3.029807862202100743e+00 -1.108218686887460169e+00
3.634543109849346809e+00 -3.043485795139390770e+00 -1.104924322405423265e+00
3.603947580908474002e+00 -3.055662863506638516e+00 -1.101159334425952707e+00
3.593973522924536201e+00 -3.085323232923736558e+00 -1.103983075410555736e+00
3.603562178671092742e+00 -3.132207813204017643e+00 -1.113160233610515526e+00
3.565319319698451395e+00 -3.137549629005884633e+00 -1.107042128143875592e+00
3.553251817889360176e+00 -3.165838592585763944e+00 -1.109395245631044746e+00
3.535201990744288647e+00 -3.188884541859129396e+00 -1.109865869128478622e+00
3.489035026234150738e+00 -3.186243601336987030e+00 -1.101159334425952707e+00
3.480115283011480098e+00 -3.217497959403646579e+00 -1.104689010656706438e+00
3.431237545346261797e+00 -3.211535634002356865e+00 -1.095041228959312773e+00
3.398073617192978624e+00 -3.219815909134231990e+00 -1.090570305733691292e+00
3.371245090105607023e+00 -3.233871332424300249e+00 -1.088217188246521916e+00
3.346462284027948098e+00 -3.249752108016034757e+00 -1.086570006005503464e+00
3.329921670844861126e+00 -3.273634261869794670e+00 -1.087746564749088041e+00
3.313902143359440000e+00 -3.298121856925460449e+00 -1.089158435241389666e+00
3.241227698081412090e+00 -3.305894195046912287e+00 -1.078098783051694376e+00
3.257361938014944336e+00 -3.363452474273211923e+00 -1.090805617482408119e+00
3.228607833741238942e+00 -3.374941324618811578e+00 -1.087981876497805089e+00
3.215175001891871442e+00 -3.402465062831135256e+00 -1.090570305733691292e+00
3.198875378624084664e+00 -3.427106447197813210e+00 -1.092217487974709522e+00
3.171863023124283032e+00 -3.440233761852770744e+00 -1.090099682236257417e+00
3.165078048502254493e+00 -3.475452432299223293e+00 -1.095276540708029600e+00
3.153434126271379423e+00 -3.505654746653452225e+00 -1.098806216938783331e+00
3.124125355214441679e+00 -3.516212463206144445e+00 -1.095982475954180302e+00
3.089041964921603434e+00 -3.519963283257270259e+00 -1.091040929231124945e+00
3.057210447768105688e+00 -3.527091409610438433e+00 -1.087275941251654388e+00
3.043088268813265440e+00 -3.554650075867646919e+00 -1.090099682236257417e+00
3.016204959016831832e+00 -3.567313400507327703e+00 -1.088217188246521916e+00
2.993637237642092330e+00 -3.585006775184349959e+00 -1.087981876497805089e+00
2.966024160048791547e+00 -3.596554645154153906e+00 -1.085864070759352762e+00
2.929798742554418745e+00 -3.597340950162210671e+00 -1.080451900538863530e+00
2.908887663855232564e+00 -3.616765909832412973e+00 -1.080922524036297405e+00
2.883017987819592065e+00 -3.629976794532159712e+00 -1.079510653543996002e+00
2.864285348631014028e+00 -3.652190100347015189e+00 -1.080922524036297405e+00
2.848955030974751335e+00 -3.678923761062795172e+00 -1.083746265020900434e+00
2.827507326004084831e+00 -3.697880546026190096e+00 -1.084216888518334310e+00
2.804764330500962188e+00 -3.715160193266935806e+00 -1.084216888518334310e+00
2.775533938209075568e+00 -3.723722515243556686e+00 -1.081628459282448107e+00
2.754359461913859608e+00 -3.743032713694309344e+00 -1.082334394528599031e+00
2.731340794906135461e+00 -3.759862684101868968e+00 -1.082334394528599031e+00
2.706522157651379601e+00 -3.774180152407181854e+00 -1.081628459282448107e+00
2.679948160047784800e+00 -3.785953383890936497e+00 -1.080216588790146703e+00
2.655555594949487119e+00 -3.800731571598310321e+00 -1.079745965292712828e+00
2.605984080583902962e+00 -3.829013333762453453e+00 -1.078569406549128251e+00
2.580817029650424477e+00 -3.842509382375053129e+00 -1.077863471302977549e+00
2.556118772906978975e+00 -3.856651440015632648e+00 -1.077392847805543674e+00
2.534531709425556389e+00 -3.875518397364303702e+00 -1.078334094800411425e+00
2.509125507982838066e+00 -3.888545671988375751e+00 -1.077628159554260501e+00
2.469060530947654986e+00 -3.878437791284920610e+00 -1.070333495344035990e+00
2.445216404674670496e+00 -3.893514651399226700e+00 -1.070333495344035990e+00
2.419235728463715152e+00 -3.905138244926052771e+00 -1.069392248349168462e+00
2.388144145581751587e+00 -3.908291821552779766e+00 -1.066097883867131557e+00
2.374638085643162810e+00 -3.940362095560234756e+00 -1.071039430590186692e+00
2.351407415168323745e+00 -3.956530299787045735e+00 -1.071510054087620567e+00
2.327577017863125430e+00 -3.971722747965349853e+00 -1.071745365836337616e+00
2.298793455210017989e+00 -3.978352094068686728e+00 -1.069627560097885288e+00
2.274339471529939427e+00 -3.992382334188202098e+00 -1.069627560097885288e+00
2.262629047677980232e+00 -4.029154315259320107e+00 -1.075980977313242049e+00
2.231284814843349729e+00 -4.031051152069524690e+00 -1.072686612831205144e+00
2.205579316970495363e+00 -4.042958933282558398e+00 -1.072215989333771491e+00
2.175217047414040650e+00 -4.046138531797797810e+00 -1.069392248349168462e+00
2.141265368087728493e+00 -4.042224059160390404e+00 -1.064686013374829932e+00
2.104301497772600005e+00 -4.032011710646493441e+00 -1.058332596159473171e+00
2.081296430028964917e+00 -4.048306633999826154e+00 -1.059273843154340700e+00
2.058608865202404381e+00 -4.065338391351983383e+00 -1.060450401897925277e+00
2.028429898661462616e+00 -4.067451482017435005e+00 -1.057626660913322247e+00
2.016263298669382475e+00 -4.106004752976528671e+00 -1.064686013374829932e+00
1.993564990852571439e+00 -4.123551388031889253e+00 -1.066097883867131557e+00
1.969476498727916747e+00 -4.138339956933253738e+00 -1.066803819113282259e+00
1.940343586482184302e+00 -4.142421934982532861e+00 -1.064686013374829932e+00
1.909610529521534428e+00 -4.142770427697115565e+00 -1.061626960641510076e+00
1.870532599427103815e+00 -4.124302780267539603e+00 -1.053626361185134641e+00
1.835705894671050720e+00 -4.114392045650317797e+00 -1.047978879215928583e+00
1.800681830887279178e+00 -4.103319661273445718e+00 -1.042096085498005698e+00
1.770474634970591099e+00 -4.102685843210466921e+00 -1.039037032764685620e+00
3.001165481992775774e-01 -6.988165446686984694e-01 -1.413227114096345383e-01
2.965696579265189037e-01 -7.024396059433013484e-01 -1.417933349070683580e-01
2.907828052936656804e-01 -7.006475336313242597e-01 -1.408520879122006908e-01
2.861159706145760540e-01 -7.015166725023110894e-01 -1.406167761634837532e-01
2.796657931656703067e-01 -6.978345177564636570e-01 -1.392049056711822386e-01
2.771345643247611901e-01 -7.040686736065214779e-01 -1.403814644147668433e-01
2.766109321145350242e-01 -7.157482498862317577e-01 -1.429698936506529627e-01
6.647887194644641617e-01 -4.407860867961246321e+00 -1.036448603528799417e+00
6.364864779593695232e-01 -4.403198531311269370e+00 -1.034330797790347312e+00
6.101183395010522093e-01 -4.411835435738678868e+00 -1.035507356533931889e+00
5.532825714360080083e-01 -4.397772910750924247e+00 -1.030330498062159483e+00
5.276622463937187257e-01 -4.412666786700356170e+00 -1.033154239046762513e+00
5.007939034481861951e-01 -4.417753060735311266e+00 -1.033624862544196388e+00
4.728562610614937545e-01 -4.413010859640709604e+00 -1.031742368554461109e+00
4.463500850964130517e-01 -4.421631737068582702e+00 -1.033154239046762513e+00
4.190294483001086867e-01 -4.422351916407455619e+00 -1.032683615549328859e+00
3.914621848096211942e-01 -4.419998745123915995e+00 -1.031507056805744282e+00
3.665440969722219000e-01 -4.449441390358442661e+00 -1.038095785769817869e+00
3.383601892636289854e-01 -4.439976589189332579e+00 -1.035272044785214840e+00
3.115798519325311822e-01 -4.448756386962504195e+00 -1.036919227026233292e+00
2.840936897163293118e-01 -4.447674462149903363e+00 -1.036213291780082590e+00
2.565222877093261133e-01 -4.444482125668393735e+00 -1.035036733036498013e+00
2.284107002126683217e-01 -4.429470971237266852e+00 -1.031036433308310407e+00
2.017462624351476774e-01 -4.442440593881965327e+00 -1.033860174292913436e+00
1.734782251030058953e-01 -4.417372306977316754e+00 -1.027506757077556454e+00
1.466521454918982559e-01 -4.427096336799912990e+00 -1.029624562816008781e+00
1.202706456979035915e-01 -4.458032118149597878e+00 -1.036919227026233292e+00
6.527304447880549754e-02 -4.438763966663703542e+00 -1.031977680303177936e+00
3.803607204791865926e-02 -4.439080916058051329e+00 -1.031977680303177936e+00
1.075610774893055732e-02 -4.412017009818660185e+00 -1.025388951339104349e+00
4.953247901446482082e+00 1.634336222664684479e+00 -1.330749017630820763e+00
4.984602980928337423e+00 1.377462342824550490e+00 -1.319029564249385222e+00
5.013795972598966699e+00 1.286681969662900382e+00 -1.320303417877802143e+00
5.002903075241247777e+00 1.218642299721752531e+00 -1.313169837558667563e+00
5.059647341842902435e+00 1.101678209997771107e+00 -1.320812959329168867e+00
5.042660652052265213e+00 1.065606810492194301e+00 -1.314443691187084262e+00
5.037681333203669176e+00 9.680383258854834416e-01 -1.308074423044999879e+00
4.888091136640912993e+00 6.314707658667009227e-01 -1.255082112102856362e+00
5.033937206128813457e+00 2.454165627419185591e-01 -1.284380745556445325e+00
5.063267401130425505e+00 9.132931056352219801e-02 -1.290750013698529930e+00
5.060222659470759332e+00 -1.884083520639970744e-03 -1.289730930795796260e+00
5.032073338718181077e+00 -3.275893338680876260e-02 -1.282342579750978206e+00
5.029651120491085869e+00 -1.253535982910739810e-01 -1.282087809025294733e+00
4.216808939205071383e+00 -2.028216890765790481e+00 -1.189351264876543635e+00
4.096881258139508653e+00 -2.095881496959001389e+00 -1.168969606821873120e+00
4.080510779384504794e+00 -2.119198423491683858e+00 -1.167950523919139671e+00
4.007294423000807626e+00 -2.144038396288368453e+00 -1.153938134006553540e+00
3.974514025477453583e+00 -2.157980437558430609e+00 -1.148078407315835880e+00
3.976446391725838136e+00 -2.190720958619762904e+00 -1.152664280378136619e+00
3.947733012321708479e+00 -2.206591346631098016e+00 -1.148078407315835880e+00
3.935448700334847505e+00 -2.263543185326509999e+00 -1.152664280378136619e+00
3.924023705840780973e+00 -2.321508724652035838e+00 -1.157759694891804303e+00
3.895605704413378056e+00 -2.337090031970553650e+00 -1.153428592555186816e+00
3.842086365215960253e+00 -2.402250899881848145e+00 -1.150371343846986250e+00
3.824006352722867597e+00 -2.423710671257185201e+00 -1.149352260944252802e+00
3.784249428035553198e+00 -2.464125960110733260e+00 -1.146295012236052235e+00
3.731214025733691653e+00 -2.495334738706568523e+00 -1.139161431916917433e+00
3.673201906483986257e+00 -2.522332499043428378e+00 -1.130499227243682459e+00
3.664801732183149419e+00 -2.549791379184512596e+00 -1.132792163774832828e+00
3.653830915037122207e+00 -2.575571361373930834e+00 -1.134320788128933222e+00
3.643468665541631957e+00 -2.601874288411024416e+00 -1.136104183208716867e+00
3.615152611187005594e+00 -2.683476353961991911e+00 -1.142728222076484723e+00
3.596299717956185305e+00 -2.703865442147200593e+00 -1.141963909899434526e+00
3.549827586341079311e+00 -2.737758954089482000e+00 -1.137632807562817039e+00
3.518998276554305527e+00 -2.783513251158141966e+00 -1.138651890465550709e+00
3.492793541577976058e+00 -2.797801496807258204e+00 -1.135594641757350143e+00
3.489082567802956447e+00 -2.830140666082008316e+00 -1.140180514819650881e+00
3.401288369101838516e+00 -2.828859793551708357e+00 -1.122091793296130735e+00
3.374248424826593595e+00 -2.841582153378442666e+00 -1.118779773862246918e+00
3.372206112061458594e+00 -2.875403158696834716e+00 -1.124129959101597853e+00
3.344249007003425866e+00 -2.887197103386690777e+00 -1.120563168942030563e+00
3.332296845286154330e+00 -2.912751892391653552e+00 -1.122601334747497681e+00
3.331022329644184321e+00 -2.947877643030933470e+00 -1.128461061438215340e+00
3.319355623188048110e+00 -2.974066287845203771e+00 -1.130753997969365710e+00
3.291014242461800077e+00 -2.985285194766799766e+00 -1.127187207809798419e+00
3.273347380809529472e+00 -3.006076114554995460e+00 -1.127441978535481892e+00
3.243505927020194690e+00 -3.015573329411801673e+00 -1.123365646924547656e+00
3.212967212857127830e+00 -3.024155383517059814e+00 -1.119034544587930169e+00
3.149158799070632675e+00 -3.037853129945392805e+00 -1.109353257011961746e+00
3.140148509084588202e+00 -3.066574137568577996e+00 -1.112920047171529037e+00
3.115082081244949563e+00 -3.079667476265095960e+00 -1.110627110640378667e+00
3.109117727996191682e+00 -3.111715900727557660e+00 -1.115467754428362879e+00
3.089966069905798918e+00 -3.130734511294726463e+00 -1.115467754428362879e+00
3.076775612511737368e+00 -3.155864697370315497e+00 -1.117760690959513248e+00
3.053327538926877693e+00 -3.170506282901195849e+00 -1.116232066605413076e+00
3.034482937141009362e+00 -3.189881859874160952e+00 -1.116486837331096327e+00
2.990503045193181997e+00 -3.221919770140266870e+00 -1.114703442251312682e+00
2.973292350277209284e+00 -3.243058696428670284e+00 -1.115722525154046352e+00
2.926821759563110970e+00 -3.272096193808894160e+00 -1.113174817897212510e+00
2.895160355981276634e+00 -3.276952932591067569e+00 -1.108588944834911549e+00
2.875634898618438129e+00 -3.295383992718733612e+00 -1.108843715560595022e+00
2.852834400782776392e+00 -3.310037454622957398e+00 -1.107824632657861352e+00
2.831843626777691192e+00 -3.326743678607316124e+00 -1.107569861932178101e+00
2.801311818168166212e+00 -3.373888312558524394e+00 -1.111900964268795589e+00
2.732693108824221451e+00 -3.417329535451274491e+00 -1.109353257011961746e+00
2.656344170165271468e+00 -3.450198299668502777e+00 -1.103748301046927338e+00
2.643906279110124213e+00 -3.477976626856083886e+00 -1.107569861932178101e+00
2.586051411432770397e+00 -3.489964202029331108e+00 -1.100945823064410023e+00
2.568587183290224285e+00 -3.511228060610892765e+00 -1.102729218144193890e+00
2.537931750727921987e+00 -3.514382461733887908e+00 -1.098652886533259654e+00
2.503403510115221220e+00 -3.511782835197483355e+00 -1.092793159842541773e+00
2.472900468753830516e+00 -3.514426998709231587e+00 -1.088716828231607758e+00
2.452945467021717896e+00 -3.531916412099595615e+00 -1.089481140408657955e+00
2.425210782717845071e+00 -3.538129318642273979e+00 -1.086678662426140640e+00
2.409960821068971804e+00 -3.562552638730850152e+00 -1.089735911134341206e+00
2.389667582884057229e+00 -3.579685027618391135e+00 -1.090500223311391403e+00
2.357545571379531246e+00 -3.578940689441449940e+00 -1.085659579523407192e+00
2.354523037668678764e+00 -3.622520613880007012e+00 -1.094831325648008891e+00
2.303167133648207354e+00 -3.640520316996778583e+00 -1.091519306214125073e+00
2.253753939280833229e+00 -3.661099916831832779e+00 -1.089226369682974482e+00
1.401915684036690424e+00 -4.000722178224315861e+00 -1.073430584690604928e+00
1.379228387776227915e+00 -4.014735414642094824e+00 -1.074959209044705100e+00
1.214806694186536751e+00 -4.010959107573000004e+00 -1.060692048406435717e+00
1.140772242861661345e+00 -4.032640196791624554e+00 -1.060692048406435717e+00
9.993595605753832212e-01 -4.103837982448946597e+00 -1.069354253079670691e+00
9.822012771343611170e-01 -4.143763291810498295e+00 -1.078525999204272390e+00
9.565395442292049522e-01 -4.148769757313224282e+00 -1.078271228478589139e+00
9.211103616368472302e-01 -4.110215413919950933e+00 -1.066297004371470125e+00
9.004054564784101933e-01 -4.136575517296616766e+00 -1.071901960336504533e+00
8.386890390131165329e-01 -4.094266885207928475e+00 -1.057634799698235151e+00
7.878346473828954366e-01 -4.101401878643502918e+00 -1.056870487521184954e+00
7.425776905759248203e-01 -4.139313336384764064e+00 -1.064513609291686480e+00
6.351580863971638680e-01 -4.119975454929799774e+00 -1.054832321715717836e+00
6.051863503460042093e-01 -4.092229162217912553e+00 -1.046424887768166334e+00
5.800655117867111743e-01 -4.095865480797368008e+00 -1.046424887768166334e+00
5.303802132004346026e-01 -4.107470333871646950e+00 -1.047698741396583255e+00
5.058770843109422488e-01 -4.116405789174483409e+00 -1.049227365750683427e+00
4.824083652664192812e-01 -4.134799428922174336e+00 -1.053303697361617663e+00
4.312292209758947226e-01 -4.136560968628658408e+00 -1.052284614458884215e+00
4.065973581493214084e-01 -4.146827886429437449e+00 -1.054322780264351112e+00
3.562590696625959064e-01 -4.158249304572868787e+00 -1.056106175344134757e+00
3.304298863525525487e-01 -4.156501262567933175e+00 -1.055087092441401309e+00
3.039248925193293593e-01 -4.144949087718161174e+00 -1.051520302281834018e+00
2.779650420423680490e-01 -4.139017473812353742e+00 -1.049482136476366900e+00
2.533332501507986056e-01 -4.153192536140164037e+00 -1.052794155910250939e+00
1.777556004852373639e-01 -4.178406423426816119e+00 -1.058399111875285348e+00
1.531087098552129377e-01 -4.206476219075750755e+00 -1.065532692194419928e+00
1.010276527252123024e-01 -4.189670831968551390e+00 -1.060692048406435717e+00
7.542479866031621960e-02 -4.196012890140965901e+00 -1.062220672760536111e+00
4.960633950969874084e-02 -4.190595122168648601e+00 -1.060692048406435717e+00
2.385720832392510329e-02 -4.185018711961812521e+00 -1.059163424052335323e+00
4.475959572376714490e+00 6.710268863668505945e-01 -1.294659478936813768e+00
4.459108124037760135e+00 6.405692569997611940e-01 -1.288418504940823217e+00
4.496110668636243091e+00 5.896399980184193756e-01 -1.297212604662446145e+00
4.471095085517331924e+00 5.585011388122217424e-01 -1.288702185577004666e+00
4.458248097838747093e+00 5.291497228257727725e-01 -1.283879614761921140e+00
4.469988034671072086e+00 5.027413268807375823e-01 -1.286432740487553517e+00
4.466313163296826261e+00 4.746012533490770458e-01 -1.284446976034283816e+00
4.452919110890651844e+00 4.455790809079090975e-01 -1.279624405219200289e+00
4.443156878889984895e+00 4.170942388676347479e-01 -1.275936556948842338e+00
4.435123862405950135e+00 3.889118118012956371e-01 -1.272816069950847062e+00
4.438382509995891567e+00 3.617681168098979549e-01 -1.273099750587028511e+00
4.446256371392043327e+00 3.349549135539914846e-01 -1.274801834404116763e+00
4.409003508143102046e+00 3.049896160354044206e-01 -1.263170928320680009e+00
4.430890477530244453e+00 2.791787262744033216e-01 -1.269128221680489110e+00
4.402377611097905152e+00 2.232104633824042172e-01 -1.259766760686503506e+00
4.407659993105014884e+00 1.692774775922712138e-01 -1.260617802595047632e+00
4.393280517483964864e+00 1.417487264185062767e-01 -1.256078912416145554e+00
4.397902026655938990e+00 1.148860374025248016e-01 -1.257213634960871129e+00
4.392771697262888964e+00 8.778918680908989747e-02 -1.255511551143782656e+00
4.361874646609478212e+00 3.366163375159468563e-02 -1.246150090149797052e+00
4.324601253619884567e+00 6.872563571918237531e-03 -1.235086545338722974e+00
4.320591490113755206e+00 -9.919181709447047468e-02 -1.234235503430178849e+00
4.330444879391246893e+00 -1.260172614016347170e-01 -1.237355990428174124e+00
2.277119800087743506e+00 -5.203239667130331592e-01 -6.467329058985319401e-01
2.272951170868829252e+00 -5.340653608944403441e-01 -6.464492252623504909e-01
2.261245742471914344e+00 -5.459617838764575515e-01 -6.438960995367181139e-01
3.266506120998741380e+00 -2.414263749029288419e+00 -1.157358051025023649e+00
3.247795645462173475e+00 -2.431384003350882672e+00 -1.155939647844116847e+00
3.225944109243666702e+00 -2.446045105700026312e+00 -1.153386522118484248e+00
3.191116061774402990e+00 -2.450588012778842639e+00 -1.146010825577768344e+00
3.177532156922316275e+00 -2.471301125704324253e+00 -1.146578186850131020e+00
3.164566867368174385e+00 -2.492533850955138686e+00 -1.147429228758675368e+00
3.134981338175671262e+00 -2.500529058498667911e+00 -1.142039296671228943e+00
3.127778412912355588e+00 -2.526353997275414542e+00 -1.145159783669224218e+00
3.104059941770669351e+00 -2.538811816775837560e+00 -1.142039296671228943e+00
3.091375286768965225e+00 -2.560259720617234613e+00 -1.143174019215954518e+00
3.082949006258156377e+00 -2.585348864834642768e+00 -1.146010825577768344e+00
3.061184863010315116e+00 -2.599245657535761200e+00 -1.143741380488317194e+00
3.040819495978180687e+00 -2.614224618502580810e+00 -1.142039296671228943e+00
3.024721672704395736e+00 -2.632833524129142955e+00 -1.142039296671228943e+00
2.995571992103629899e+00 -2.639918117338168724e+00 -1.136933045219963967e+00
2.947148290561647066e+00 -2.629488009353099898e+00 -1.124167416591801860e+00
2.907497777259302918e+00 -2.626286195346288821e+00 -1.114805955597816034e+00
2.885672683732999122e+00 -2.638893983691962486e+00 -1.112536510508365106e+00
2.870832378613338953e+00 -2.657854824264602289e+00 -1.113103871780727783e+00
2.853072109334251927e+00 -2.674106922646783513e+00 -1.112536510508365106e+00
2.853983558691808753e+00 -2.708081672601854617e+00 -1.119628526412899561e+00
2.833168200400517200e+00 -2.721552346028103919e+00 -1.117926442595811309e+00
2.832211351648907360e+00 -2.754277552845521004e+00 -1.124451097227983087e+00
2.795461354457412728e+00 -2.752074121577182897e+00 -1.116224358778723058e+00
2.785985839376136308e+00 -2.776628697682763658e+00 -1.119344845776718333e+00
2.781034280487014954e+00 -2.805942677474670077e+00 -1.124451097227983087e+00
2.745001202561827114e+00 -2.803749061535763420e+00 -1.116508039414904285e+00
2.715759595308333996e+00 -2.808119503796177696e+00 -1.111401787963639531e+00
2.698478174545095420e+00 -2.824730229351742228e+00 -1.111401787963639531e+00
2.671891604204702730e+00 -2.831461092072359964e+00 -1.107430259057100130e+00
2.673407710724744923e+00 -2.868163940553472013e+00 -1.115656997506360160e+00
2.657705002417134477e+00 -2.886632037904294013e+00 -1.116508039414904285e+00
2.648965026391728372e+00 -2.912826334047126764e+00 -1.120479568321443686e+00
2.631042393984973859e+00 -2.929025244756140900e+00 -1.120479568321443686e+00
2.613656377302723488e+00 -2.945831824411829114e+00 -1.120763248957625136e+00
2.594269380111775103e+00 -2.960369800018614050e+00 -1.120195887685262459e+00
2.574802426456324955e+00 -2.974780826124816091e+00 -1.119628526412899561e+00
2.540319937565054698e+00 -2.971555890290028756e+00 -1.112252829872183657e+00
2.517713956655489582e+00 -2.981953758307253732e+00 -1.110267065418913957e+00
2.510409955518587921e+00 -3.010613941180406261e+00 -1.115373316870178932e+00
2.446688648018269685e+00 -3.008432423178367010e+00 -1.102891368878197831e+00
2.447972615397790541e+00 -3.048081342184028930e+00 -1.112252829872183657e+00
2.436959855843462641e+00 -3.072819618488666471e+00 -1.115940678142541609e+00
2.421011773021824354e+00 -3.091492547775012145e+00 -1.117359081323448633e+00
2.406683593032775903e+00 -3.112362861523713331e+00 -1.119628526412899561e+00
2.387541188389645797e+00 -3.127071405086264022e+00 -1.119628526412899561e+00
2.370038226525708058e+00 -3.143961158820482549e+00 -1.120479568321443686e+00
2.340983196938841271e+00 -3.145357030498087347e+00 -1.115656997506360160e+00
2.313134627785739195e+00 -3.148061867379404521e+00 -1.111401787963639531e+00
2.292650456954214988e+00 -3.160642143582792052e+00 -1.110834426691276633e+00
2.277116212331365297e+00 -3.180111694563141356e+00 -1.112820191144546333e+00
2.255902548784047390e+00 -3.191673044540678905e+00 -1.111969149236002208e+00
2.239015582481729716e+00 -3.209389981292034122e+00 -1.113387552416909232e+00
2.207334804690635366e+00 -3.205680009444277001e+00 -1.107146578420918681e+00
2.176322450766365879e+00 -3.202496420691081536e+00 -1.101189285061109580e+00
2.140633279217120766e+00 -3.191880908000859662e+00 -1.092678865975668101e+00
2.110440602057418680e+00 -3.188951099118950250e+00 -1.087005253252040449e+00
2.089263492435216474e+00 -3.199430147053088369e+00 -1.086154211343496323e+00
2.074777914789416311e+00 -3.220255835602702010e+00 -1.088991017705310149e+00
2.038664190970236767e+00 -3.251164693984703202e+00 -1.090976782158579850e+00
2.018173469025594358e+00 -3.262796448941108984e+00 -1.090693101522398401e+00
1.995622552562822616e+00 -3.271022679298589697e+00 -1.089274698341491598e+00
1.972553241631963994e+00 -3.278272997381056264e+00 -1.087572614524403125e+00
1.957285673744457943e+00 -3.298566463791709591e+00 -1.090409420886216951e+00
1.929274892004407826e+00 -3.297263430328359668e+00 -1.085870530707314874e+00
1.909006945883411355e+00 -3.309039168469943171e+00 -1.085870530707314874e+00
1.887720736077963535e+00 -3.319022256635477230e+00 -1.085303169434952197e+00
1.863575511463428702e+00 -3.323847245407348439e+00 -1.083033724345501048e+00
1.817611072262904415e+00 -3.337197282731534376e+00 -1.079913237347505772e+00
1.807962229250356323e+00 -3.368576589457536130e+00 -1.086721572615858999e+00
1.775626887585170399e+00 -3.357554569869859673e+00 -1.079345876075143096e+00
1.757202775533545314e+00 -3.372640832180501480e+00 -1.080764279256049898e+00
1.723453593142996620e+00 -3.409362909721090240e+00 -1.085870530707314874e+00
1.705486767232284651e+00 -3.425885801705167211e+00 -1.087856295160584574e+00
1.685276144409673771e+00 -3.438008941227874260e+00 -1.088423656432947251e+00
1.666228530374280536e+00 -3.452605123556043321e+00 -1.089842059613854275e+00
1.642138472086814183e+00 -3.456697828567297126e+00 -1.087856295160584574e+00
1.616845331122348739e+00 -3.458017863031457306e+00 -1.085019488798770748e+00
1.593197539789077410e+00 -3.462644202806242077e+00 -1.083317404981682497e+00
1.567581251930754149e+00 -3.462740761479491614e+00 -1.080196917983687221e+00
1.524202495316647088e+00 -3.479959117212675146e+00 -1.079629556711324323e+00
3.009343476135140083e-01 -7.023985089805804272e-01 -1.817803431972430384e-01
2.936785095623401509e-01 -6.971463041559814444e-01 -1.795108981077919719e-01
2.922921776158130536e-01 -7.060385470328938151e-01 -1.817803431972430384e-01
2.872412127989132924e-01 -7.060384697056601988e-01 -1.812129819248802787e-01
2.892248257714618576e-01 -7.238490630596418063e-01 -1.863192333761451991e-01
2.837408400265469255e-01 -7.229267721197458751e-01 -1.854681914676010457e-01
3.003921608900066986e-01 -7.802398052209441603e-01 -2.030563909108468734e-01
5.394853806123440787e-01 -3.750932587939434626e+00 -1.076792750349510497e+00
5.156818921821593182e-01 -3.748471534671164118e+00 -1.075090666532422246e+00
4.925481540311487105e-01 -3.750614247067116658e+00 -1.074806985896240796e+00
4.702335741613218878e-01 -3.759275643094842412e+00 -1.076509069713329270e+00
4.451392983259618297e-01 -3.744948119201063630e+00 -1.071402818262064294e+00
4.196007191223514177e-01 -3.724736783847793387e+00 -1.064594482993711066e+00
3.728201083758221901e-01 -3.719108828275518697e+00 -1.061473995995715791e+00
3.505256163547945114e-01 -3.727055211620882602e+00 -1.063176079812804042e+00
3.271528493323881404e-01 -3.723403862454348623e+00 -1.061473995995715791e+00
3.051476946380953237e-01 -3.735855157376133384e+00 -1.064594482993711066e+00
2.824326790257783992e-01 -3.740526004642869218e+00 -1.065445524902255192e+00
2.363311202146300694e-01 -3.740839006700889424e+00 -1.064594482993711066e+00
2.127842162991102626e-01 -3.731687043022262174e+00 -1.061473995995715791e+00
1.898830094536435031e-01 -3.732922414474628248e+00 -1.061473995995715791e+00
1.203288123830570655e-01 -3.709907015789402074e+00 -1.053814618818818438e+00
7.490315422646989796e-02 -3.716856753845751982e+00 -1.055516702635906690e+00
5.226906947735249220e-02 -3.730670124045861069e+00 -1.059488231542446091e+00
2.939665822077204213e-02 -3.733797302342512392e+00 -1.060339273450990216e+00
4.024996727154578124e+00 1.471677721881066825e+00 -1.315349262584322831e+00
4.027671644164827036e+00 1.444698157025330110e+00 -1.313231508839224349e+00
4.052642521528293962e+00 1.425656878367469238e+00 -1.318677161326620162e+00
4.077209458707031331e+00 1.295182900350340782e+00 -1.312928972589924692e+00
4.058688181692407859e+00 1.261924948101136978e+00 -1.304155421360231326e+00
4.063619472752139750e+00 1.236164357802821412e+00 -1.303247812612332135e+00
4.091224146760029434e+00 1.217194069357781405e+00 -1.309903610096927018e+00
4.119380375255524918e+00 1.035282986816687512e+00 -1.303247812612332135e+00
4.121576697812571410e+00 9.822196275838308566e-01 -1.299919913870034582e+00
4.140757598131441952e+00 9.332468123838669749e-01 -1.302340203864432722e+00
4.129647797524853559e+00 9.041465218127326953e-01 -1.296894551377037130e+00
4.137631779777845686e+00 8.528230457749624849e-01 -1.295986942629137717e+00
4.187086710345584883e+00 8.095977139135817069e-01 -1.308693465099727948e+00
4.192954867182177914e+00 7.574756022558067903e-01 -1.307483320102528879e+00
4.190012380561682015e+00 7.304216084560126721e-01 -1.305063030108130739e+00
4.186896038749201132e+00 7.034322921068513201e-01 -1.302642740113732600e+00
4.153671977607205079e+00 4.123612888740563198e-01 -1.279952521416250155e+00
4.157072989407470942e+00 3.869557682675792143e-01 -1.280255057665549812e+00
4.158738925932675912e+00 3.100160359528770226e-01 -1.278742376419051086e+00
4.157079375222912709e+00 2.330388023635051320e-01 -1.276624622673952825e+00
4.131776829323127842e+00 2.061868694686995740e-01 -1.268153607693559337e+00
4.135820821932494340e+00 1.809569478478840199e-01 -1.269061216441458528e+00
4.117804276944404762e+00 1.548530521316455189e-01 -1.263010491455463180e+00
4.110103025261603094e+00 1.293107619191024293e-01 -1.260287665211765384e+00
4.094621094193449551e+00 1.036729183009637151e-01 -1.255144548973669449e+00
4.098991961494570013e+00 7.862140737212540420e-02 -1.256354693970868519e+00
4.107021627164034960e+00 5.357133168247359828e-02 -1.258774983965266436e+00
4.079632756460752852e+00 2.816870100821446815e-02 -1.250001432735573292e+00
4.082588210172938936e+00 3.139305424016654907e-03 -1.250909041483472706e+00
4.071093106581664678e+00 -2.185402642258389705e-02 -1.247278606491875497e+00
4.065163901980827887e+00 -4.676977484406250746e-02 -1.245463388996076892e+00
4.073377366116346820e+00 -7.186029806573893119e-02 -1.248186215239774688e+00
3.548687723786453585e+00 -1.648588356479168793e+00 -1.197057589108114328e+00
3.514436451489276969e+00 -1.685423131436246891e+00 -1.192217009119318050e+00
3.374734746413897479e+00 -1.747760386187469095e+00 -1.161358311690741996e+00
3.351350708439527537e+00 -1.788145292863989821e+00 -1.160753239192142461e+00
3.340852679698072425e+00 -1.835557646323623837e+00 -1.164988746682339205e+00
3.317869021182853650e+00 -1.849529755809538933e+00 -1.160753239192142461e+00
3.298159532210938494e+00 -1.865164548211668549e+00 -1.157727876699144787e+00
3.293649235603394843e+00 -1.943466392258082820e+00 -1.168921717923236070e+00
3.265300407891667867e+00 -1.953857866117638231e+00 -1.162870992937240722e+00
3.254070235434605607e+00 -2.001766157081706687e+00 -1.167711572926037000e+00
3.207162535025676942e+00 -2.083097544272747292e+00 -1.168921717923236070e+00
3.162747180498173272e+00 -2.138043650104420212e+00 -1.166803964178137809e+00
3.140130045525006075e+00 -2.150949867037087238e+00 -1.163173529186540600e+00
3.129222701631395598e+00 -2.171806246933107865e+00 -1.164081137934439791e+00
3.065523118243199008e+00 -2.212313357379472656e+00 -1.155005050455446769e+00
2.976230471684046641e+00 -2.232354452732297823e+00 -1.135945266749561533e+00
2.962213748452632522e+00 -2.279165661867712966e+00 -1.141390919236957346e+00
2.957972878676713879e+00 -2.334229413837836997e+00 -1.151072079214549904e+00
2.923917359263064952e+00 -2.366157571635476131e+00 -1.148954325469451643e+00
2.849167550715095754e+00 -2.364143927455417682e+00 -1.130197078012866063e+00
2.828656231322556724e+00 -2.406337039710352954e+00 -1.133827513004463272e+00
2.763267146814752273e+00 -2.380126754353634411e+00 -1.112649975553479553e+00
2.752922617509931502e+00 -2.400793960972528840e+00 -1.114465193049278158e+00
2.762441517416358572e+00 -2.439079130849111987e+00 -1.124751425525470250e+00
2.754218164882252573e+00 -2.492612407871305891e+00 -1.134130049253762929e+00
2.730413254977557713e+00 -2.532702237567337811e+00 -1.137155411746760603e+00
2.660660167256786224e+00 -2.560729341747602028e+00 -1.127171715519868389e+00
2.640117050932386356e+00 -2.572352597276605923e+00 -1.125053961774770128e+00
2.602953568115869754e+00 -2.599171647812301700e+00 -1.122633671780371989e+00
2.586285748745467128e+00 -2.614416820304915845e+00 -1.122331135531072110e+00
2.554670329896698622e+00 -2.646643164105042079e+00 -1.122633671780371989e+00
2.537690252487633025e+00 -2.694439413404812189e+00 -1.129894541763566407e+00
2.532823816079887713e+00 -2.756245901568608492e+00 -1.143206136732755951e+00
2.498809721998807909e+00 -2.787120005751362761e+00 -1.143206136732755951e+00
2.463163703906142477e+00 -2.816140042217577300e+00 -1.142601064234156416e+00
2.439603885632589897e+00 -2.823990642597704159e+00 -1.139575701741158742e+00
2.421611321753835533e+00 -2.838181790809353178e+00 -1.139273165491859086e+00
2.385716005493784930e+00 -2.831128994394809695e+00 -1.130197078012866063e+00
2.354427128308872685e+00 -2.864608756047645421e+00 -1.132012295508664668e+00
2.328993108272243706e+00 -2.869384044941298839e+00 -1.128079324267767802e+00
2.321482421216342740e+00 -2.896259356234768934e+00 -1.133222440505863737e+00
2.269909908535087784e+00 -2.904259791147108860e+00 -1.125053961774770128e+00
2.154939886582971642e+00 -2.938713044959726073e+00 -1.111742366805580362e+00
2.134071542460723059e+00 -2.948021015163624359e+00 -1.110229685559081636e+00
2.036235013272054140e+00 -2.963380857165146320e+00 -1.096313018091292335e+00
2.021225492881216113e+00 -2.980550929050060915e+00 -1.098128235587090940e+00
2.009264487819567790e+00 -3.002399570564576514e+00 -1.101758670578688148e+00
1.954691285172910353e+00 -3.040477947925293911e+00 -1.102363743077287683e+00
1.944172112710786715e+00 -3.065289265091654336e+00 -1.107204323066083962e+00
1.926844970480303454e+00 -3.079584159566453483e+00 -1.108111931813983153e+00
1.898895808328595614e+00 -3.076753193072909731e+00 -1.102666279326587340e+00
1.112300938499424019e+00 -3.358971763209353867e+00 -1.078160843133306290e+00
8.211151905634862525e-01 -3.446653822004619450e+00 -1.079673524379805238e+00
7.595764035450196516e-01 -3.470494023196246225e+00 -1.082698886872802913e+00
3.611689453306449193e-01 -1.812806502218953675e+00 -5.417640731248216657e-01
3.455068373722395281e-01 -1.791594993842278605e+00 -5.342006668923274804e-01
3.353850155821030410e-01 -1.798365426090666741e+00 -5.357133481388263174e-01
3.255326614851304368e-01 -1.806954708148327926e+00 -5.378311018839246893e-01
3.137831442035777241e-01 -1.805162454421976204e+00 -5.366209568867256197e-01
4.582751062408629283e-01 -3.517196012418058793e+00 -1.080883669377004308e+00
4.368031331418897323e-01 -3.520887560327678134e+00 -1.081186205626303964e+00
4.137357086021394292e-01 -3.511196437957059047e+00 -1.077253234385407099e+00
3.076588804130600541e-01 -3.543125019917879648e+00 -1.083909031870001982e+00
2.847572567825255030e-01 -3.530695793681160044e+00 -1.079370988130505360e+00
2.632303762858008156e-01 -3.534277514989767166e+00 -1.079976060629104895e+00
2.417356350295805090e-01 -3.538678813558305158e+00 -1.080883669377004308e+00
1.320967831832930151e-01 -3.518712588875414937e+00 -1.072715190645910477e+00
1.105948829719717308e-01 -3.522314845944937378e+00 -1.073622799393809890e+00
8.912720981022377587e-02 -3.528644076381928230e+00 -1.075438016889608495e+00
6.801476364881864356e-02 -3.556760236739389125e+00 -1.084211568119301639e+00
3.690426922856153702e+00 5.500571758555576896e-01 -1.263784134363784117e+00
3.685324367725440364e+00 5.262116010416564293e-01 -1.260803575478474103e+00
3.685678658897999060e+00 5.032091126267335124e-01 -1.259810055850037580e+00
3.680274754272308879e+00 4.794968254040790079e-01 -1.256829496964727344e+00
3.701877994937928573e+00 4.592087631803548620e-01 -1.263452961154305276e+00
3.700877128105806158e+00 4.360482753995773009e-01 -1.262128268316389690e+00
3.715334239769717328e+00 3.915787615510756270e-01 -1.265440000411178767e+00
3.721423232478343390e+00 3.691429969396939348e-01 -1.266764693249094131e+00
3.709524043258981774e+00 3.450065209206581995e-01 -1.261797095106910849e+00
3.667389124721576632e+00 2.957929633513330381e-01 -1.245569607842444970e+00
3.671017119703426701e+00 2.734228060461701970e-01 -1.246231954261402874e+00
3.668859918837584555e+00 2.506396479175463377e-01 -1.244907261423487288e+00
3.675037834234394563e+00 2.284106812394284813e-01 -1.246563127470881716e+00
3.683907369974224633e+00 2.062704580194812676e-01 -1.249212513146712888e+00
3.686988576228971137e+00 1.837544017323541889e-01 -1.249874859565670793e+00
3.705015546112028435e+00 1.618506168967644154e-01 -1.255835977336290821e+00
3.713482450295296999e+00 1.393889012898056334e-01 -1.258485363012121994e+00
3.703893309562276581e+00 1.162864693502594082e-01 -1.254842457707854075e+00
3.713026758506918767e+00 9.376269162526350287e-02 -1.257823016593164089e+00
3.682762174539649713e+00 4.782119952259150653e-02 -1.246894300680360557e+00
3.676381392024573813e+00 2.518536168061424538e-02 -1.244576088214008447e+00
3.651933902094836260e+00 2.636669440960290323e-03 -1.235965584767557246e+00
3.654711983381471629e+00 -1.978970586773474982e-02 -1.236959104395993769e+00
3.651363730473622837e+00 -6.458393822855350297e-02 -1.235965584767557246e+00
3.656558374751166962e+00 -8.712822986937455993e-02 -1.237952624024430515e+00
3.648410016204337136e+00 -1.093282966186923388e-01 -1.235303238348599342e+00
2.756780971329365393e+00 -2.041177026960629526e+00 -1.158139880540017153e+00
2.732891697607543691e+00 -2.049548593998862245e+00 -1.153172282397833870e+00
2.737530635862075901e+00 -2.079426368401448233e+00 -1.160789266215848325e+00
2.680574200652973804e+00 -2.088469646075763020e+00 -1.146879991417734779e+00
2.661048642604721515e+00 -2.099609803007158604e+00 -1.143899432532424765e+00
2.637805304894142555e+00 -2.107639735330650410e+00 -1.139263007599720323e+00
2.618960892487304459e+00 -2.119030164193239862e+00 -1.136613621923889150e+00
2.606638620966595710e+00 -2.135658796828428851e+00 -1.136944795133367991e+00
2.594210861647552768e+00 -2.152215971130761130e+00 -1.137275968342847055e+00
2.583121528143409229e+00 -2.169916585654782626e+00 -1.138269487971283578e+00
2.574868983196659133e+00 -2.217483534811015566e+00 -1.146879991417734779e+00
2.574002220612280123e+00 -2.244418272708881279e+00 -1.152841109188355029e+00
2.558062422802146685e+00 -2.258293863349118524e+00 -1.151847589559918283e+00
2.522469272005940066e+00 -2.282541867847688977e+00 -1.148204684255650365e+00
2.453917865529795517e+00 -2.304011192534531016e+00 -1.135620102295452405e+00
2.424101097356867296e+00 -2.332640897015290093e+00 -1.134957755876494723e+00
2.419868898247594213e+00 -2.357359470697206749e+00 -1.139925354018678005e+00
2.387423546229325400e+00 -2.383540146246218683e+00 -1.138269487971283578e+00
2.364136626267447916e+00 -2.389414128956503625e+00 -1.133964236248057977e+00
2.336256920469733878e+00 -2.390363201676292793e+00 -1.127340772058480267e+00
2.316309597840291890e+00 -2.399216167999471239e+00 -1.124691386382649094e+00
2.309349016455548576e+00 -2.421587210983775496e+00 -1.128665464896395632e+00
2.287985419741644932e+00 -2.428835415199749992e+00 -1.125353732801606776e+00
2.267261986839157473e+00 -2.436604443268605813e+00 -1.122373173916296762e+00
2.252268582473472058e+00 -2.450470232899207179e+00 -1.122373173916296762e+00
2.216921956868572519e+00 -2.441863346983365712e+00 -1.111775631212972071e+00
2.188686447508692900e+00 -2.440651670659202299e+00 -1.104820993813915520e+00
2.147429852611824064e+00 -2.424336717300054289e+00 -1.090911719015801973e+00
2.102114009177687759e+00 -2.402631982832195146e+00 -1.074684231751336094e+00
2.081697635823893666e+00 -2.500682888290485462e+00 -1.096210490367464097e+00
2.076485782386494172e+00 -2.525812486174405791e+00 -1.101840434928605283e+00
2.061834483020118736e+00 -2.571737499193930798e+00 -1.111113284794014389e+00
2.060050423717555201e+00 -2.602112595521916205e+00 -1.119061441821507907e+00
2.049847600131470049e+00 -2.622144722580622922e+00 -1.122373173916296762e+00
2.015299183870177036e+00 -2.610748698683767799e+00 -1.111775631212972071e+00
2.011233982836059919e+00 -2.638839389901646459e+00 -1.118730268612028844e+00
1.957913828278604829e+00 -2.635271807123699794e+00 -1.106476859861309947e+00
1.947278488356246839e+00 -2.654851091980119371e+00 -1.109788591956098802e+00
1.922112916553359474e+00 -2.654510350005663266e+00 -1.104489820604436456e+00
1.910170859531277854e+00 -2.672400765917742227e+00 -1.107139206280267629e+00
1.888307234927644851e+00 -2.676354428933419349e+00 -1.103827474185478774e+00
1.872926420590093954e+00 -2.689440440932653331e+00 -1.104489820604436456e+00
1.860657082716272281e+00 -2.707108011664471015e+00 -1.107139206280267629e+00
1.842954120744388469e+00 -2.716910776086854273e+00 -1.106476859861309947e+00
1.830963977876381765e+00 -2.735230584989432057e+00 -1.109457418746619961e+00
1.809474675080920525e+00 -2.739322079753746308e+00 -1.106476859861309947e+00
1.793146689586494924e+00 -2.751164366342655043e+00 -1.106808033070788788e+00
1.780307128639339709e+00 -2.768469246543742823e+00 -1.109457418746619961e+00
1.766818069128919033e+00 -2.784922526532174203e+00 -1.111775631212972071e+00
1.737207033528999300e+00 -2.775699664341135353e+00 -1.103496300975999933e+00
1.727068360219592202e+00 -2.797555819839004254e+00 -1.108132725908704375e+00
1.704973048477143482e+00 -2.800034972454153781e+00 -1.104820993813915520e+00
1.685821165011937905e+00 -2.807205710945301025e+00 -1.103496300975999933e+00
1.670483930776457848e+00 -2.820746777010905593e+00 -1.104820993813915520e+00
1.655993528719438501e+00 -2.835836006162543832e+00 -1.106808033070788788e+00
1.644669280152429636e+00 -2.856581551269625763e+00 -1.111113284794014389e+00
1.636405894825187834e+00 -2.883042688691821898e+00 -1.117736748983592321e+00
1.616846215997757907e+00 -2.889733186824486655e+00 -1.116412056145676734e+00
1.594992864517494002e+00 -2.892158261889380633e+00 -1.113431497260366720e+00
1.570922941995040567e+00 -2.890276303864567797e+00 -1.108795072327662057e+00
1.523913325857002787e+00 -2.887625257380216581e+00 -1.100184568881210856e+00
1.502692730624529238e+00 -2.890219689585508345e+00 -1.097535183205379683e+00
1.483643168537657875e+00 -2.896864523541140546e+00 -1.096541663576943160e+00
1.463720869085144871e+00 -2.901698523384210748e+00 -1.094885797529548510e+00
1.455938306723459474e+00 -2.930918834658541083e+00 -1.102833954557042029e+00
1.419861794554795331e+00 -2.948564744533276993e+00 -1.102833954557042029e+00
1.376012290712373964e+00 -2.949510348364315249e+00 -1.096541663576943160e+00
1.353962597213358210e+00 -2.949317698837103485e+00 -1.093229931482154083e+00
1.332741864618586902e+00 -2.950686652211809147e+00 -1.090580545806322910e+00
1.310409320855044690e+00 -2.949318176034243955e+00 -1.086937640502055213e+00
1.289650840724299696e+00 -2.951247484431826162e+00 -1.084619428035702882e+00
4.241987702736543242e-01 -3.102216335769184763e+00 -1.053157973135208092e+00
4.141010250127591941e-01 -3.174009609019793565e+00 -1.077664790636646108e+00
3.953086845031118512e-01 -3.182109850384708061e+00 -1.079651829893519599e+00
3.576804126982233156e-01 -3.199851350696156782e+00 -1.084288254826224041e+00
3.379418831679255053e-01 -3.201047320372418348e+00 -1.083957081616745199e+00
3.193075543533540617e-01 -3.213390323437407048e+00 -1.087599986921012896e+00
3.008798544428268329e-01 -3.229383219920746395e+00 -1.092567585063196400e+00
2.610032491515981157e-01 -3.230010514471300276e+00 -1.091574065434759655e+00
2.416626703200647208e-01 -3.238138479914973278e+00 -1.093892277901111987e+00
2.214729351103474353e-01 -3.234853104886850517e+00 -1.092236411853717559e+00
1.593203396408528205e-01 -3.185604369457784024e+00 -1.073690712122899349e+00
1.197006786303943804e-01 -3.173175442446003913e+00 -1.068723113980716066e+00
1.005710682902421910e-01 -3.185167824811559800e+00 -1.072697192494462826e+00
6.205450360967783990e-02 -3.218238322785352157e+00 -1.083957081616745199e+00
4.269889533675372967e-02 -3.251581118784268920e+00 -1.095548143948506414e+00
2.792666383016430276e-03 -3.254690971553854340e+00 -1.096541663576943160e+00
3.424174955169417167e+00 1.234008487692603406e+00 -1.311463614860320037e+00
3.407142284406328159e+00 1.042004016582189552e+00 -1.282800238075830324e+00
3.447362431814945616e+00 9.853021542568588531e-01 -1.291189519085924831e+00
3.491956007514271043e+00 8.376834771996939377e-01 -1.293286839338448457e+00
3.510442807846182678e+00 7.740746960108554342e-01 -1.294685052840131023e+00
3.506835941643940302e+00 7.282650610091242482e-01 -1.289791305584242487e+00
3.481218300643248220e+00 3.724205827544288527e-01 -1.259729715298070429e+00
3.478064640298330623e+00 3.289634378583810026e-01 -1.256933288294705742e+00
2.833696425660192642e+00 -1.619919259135732093e+00 -1.171292711316657575e+00
2.679855873332507965e+00 -1.688692772280953935e+00 -1.135288713648335168e+00
2.685212467296965055e+00 -1.785573572219522731e+00 -1.156611469548992188e+00
2.683532675062541450e+00 -1.808294269086371919e+00 -1.160806110054039442e+00
2.500854424476075977e+00 -1.992453486662094209e+00 -1.146474421661794585e+00
2.405677080705459492e+00 -2.040368704938195776e+00 -1.130394966392446854e+00
2.403067788305546237e+00 -2.063631746653691312e+00 -1.135288713648335168e+00
