# X Y Z
5.252851831386639248e+00 -4.707876573376385210e+00 -1.087982275499684404e+00
5.227582164124978448e+00 -4.711662850569022787e+00 -1.085376720414467755e+00
5.207660628759573029e+00 -4.783909634192894167e+00 -1.090802287470760801e+00
5.205906999685940839e+00 -4.775123857028012786e+00 -1.089645328116849221e+00
5.222747124018484399e+00 -4.753107384463278962e+00 -1.089273983072821306e+00
5.089140654247424678e+00 -4.785108777879640840e+00 -1.077042873100812148e+00
5.153537272382263446e+00 -4.743664810103243035e+00 -1.080084785458153007e+00
5.091653169045534000e+00 -4.801929622619167226e+00 -1.079179162909834178e+00
5.135931452983080625e+00 -4.816105594101454557e+00 -1.085909251521844032e+00
4.903920227701362045e+00 -4.824113586497623452e+00 -1.060023316168427598e+00
4.869766870798969194e+00 -4.775535197415365474e+00 -1.050659898774793266e+00
4.865804217097315920e+00 -4.785027097510721639e+00 -1.051273163158079837e+00
4.925203489806279755e+00 -4.791056594485542774e+00 -1.058743219998298235e+00
4.853364476659347559e+00 -4.865192945842809813e+00 -1.058899147727148771e+00
4.872553023979562248e+00 -4.835200616465511914e+00 -1.057681928634986779e+00
4.853029485788212583e+00 -4.865578697874595626e+00 -1.058904876878687507e+00
4.816637500573953012e+00 -4.867680297404842982e+00 -1.055040672070492125e+00
4.769953497029727707e+00 -4.905894899433420164e+00 -1.054173503896700614e+00
4.813503629275555973e+00 -4.867005613843875977e+00 -1.054611463008417793e+00
4.756409150989289181e+00 -4.926908895138389255e+00 -1.055082197298963465e+00
4.770244809200443470e+00 -4.888948620214497609e+00 -1.052265789858937817e+00
4.745902705492585305e+00 -4.934899127787443440e+00 -1.054835744003674414e+00
4.736139768203195821e+00 -4.942834244648151021e+00 -1.054665798207247818e+00
4.731952708161369259e+00 -5.013308893601242211e+00 -1.062378445609298616e+00
4.738498211928227732e+00 -4.966120645715490056e+00 -1.057623951723797084e+00
4.738185097408942781e+00 -5.011874219444337974e+00 -1.062894516445965776e+00
4.693930381436955734e+00 -5.021866804510283444e+00 -1.059208413124590464e+00
4.663480932937866363e+00 -5.024613337631516075e+00 -1.056213978362970041e+00
4.642889974852580259e+00 -5.062750015412742499e+00 -1.058464813318700015e+00
4.630879476992650901e+00 -5.097201893444165854e+00 -1.061240043736577210e+00
4.642819156476052811e+00 -5.058353896839014041e+00 -1.057938983315281023e+00
4.624704691072129670e+00 -5.100812803623675507e+00 -1.061004465746140601e+00
4.605800397341973884e+00 -5.114589057159419916e+00 -1.060607876030794205e+00
4.573831994333114714e+00 -5.177974786041784405e+00 -1.064775919914347613e+00
4.600984852289660587e+00 -5.168135646445980669e+00 -1.066475995836966062e+00
4.592319682079537557e+00 -5.172099553680502559e+00 -1.066031595868270898e+00
4.598369414266400668e+00 -5.122882788071389193e+00 -1.060809701187917398e+00
4.559363373152493182e+00 -5.306569135200279064e+00 -1.078766565045468306e+00
4.569708079578611581e+00 -5.304052079167038691e+00 -1.079556166504532566e+00
4.575765739397014364e+00 -5.287062155022755228e+00 -1.078118107326082598e+00
4.553537270706907947e+00 -5.316790443710062597e+00 -1.079400163648479793e+00
4.540456037473773243e+00 -5.360039311299409803e+00 -1.083309059802695984e+00
4.504738388676997829e+00 -5.362945227951851912e+00 -1.079984246862586206e+00
4.529242771062286010e+00 -5.361323153234295980e+00 -1.082310415501869238e+00
4.541333761508163036e+00 -5.322255285084819931e+00 -1.078807655921450559e+00
4.278053884612296187e+00 -5.226456684197988700e+00 -1.040022278816814527e+00
4.396802292406139401e+00 -5.304120538271107854e+00 -1.061693122818195834e+00
4.216822611640949958e+00 -5.218370563024821607e+00 -1.032852290517866534e+00
4.214837820029872617e+00 -5.186028513669754147e+00 -1.028617360890223598e+00
4.111166588495702712e+00 -5.158416016034339080e+00 -1.014791048526618500e+00
4.153683398575327423e+00 -5.189123334683822364e+00 -1.022860710373645565e+00
4.167136045032698632e+00 -5.236738232875758570e+00 -1.030153267321153532e+00
4.156912101840055662e+00 -5.201194635311634507e+00 -1.024691253327019602e+00
4.092209790464869101e+00 -5.171022574271860073e+00 -1.014481141218525950e+00
4.100947948055142511e+00 -5.200004542284083264e+00 -1.018974229116403452e+00
3.847995202096900158e+00 -5.275418671869105403e+00 -1.004123124343885953e+00
3.854911822957957312e+00 -5.280607324618290299e+00 -1.005461636014561178e+00
3.858109881234784933e+00 -5.260827873655840037e+00 -1.003196015807231500e+00
3.841960972803721397e+00 -5.290810543917763731e+00 -1.005545957897298948e+00
3.823482598517548681e+00 -5.349399633800452136e+00 -1.011425533787134734e+00
3.835993851942899990e+00 -5.323466997508891296e+00 -1.009220639255415941e+00
3.832115666458293379e+00 -5.338396645027911447e+00 -1.010795069657966616e+00
3.840340809057029681e+00 -5.289739516119624341e+00 -1.005258825449588223e+00
3.761891485064414731e+00 -5.462742313135104055e+00 -1.020609909229853507e+00
3.755823071048785877e+00 -5.488374087881565444e+00 -1.023456181059059444e+00
3.766557063990639609e+00 -5.463881435221299654e+00 -1.021182579873161300e+00
3.719171035620037813e+00 -5.520341197862070004e+00 -1.024376621164906576e+00
3.719172717759756885e+00 -5.520396248473266709e+00 -1.024384064614769940e+00
3.653264078983016194e+00 -5.565069847988028506e+00 -1.024499785230813309e+00
3.579357790927553573e+00 -5.534342685961529895e+00 -1.013920611413202666e+00
3.662449532385843476e+00 -5.559886252358028358e+00 -1.024621797261581424e+00
3.571102272754355322e+00 -5.532059604327946190e+00 -1.012898136134827043e+00
3.646787126273273394e+00 -5.567408421836276489e+00 -1.024239310611402942e+00
3.533286332451396561e+00 -5.525229768016242993e+00 -1.008709571331758426e+00
3.431445989665948826e+00 -5.516395948327802223e+00 -9.988242525492756485e-01
3.405632627183952987e+00 -5.527283471574359730e+00 -9.981303056947326002e-01
3.407248790461667731e+00 -5.523299948603272114e+00 -9.977320733751708914e-01
3.392611743635430166e+00 -5.535761794150984905e+00 -9.981919090458247767e-01
3.369253223798643226e+00 -5.543982368805830063e+00 -9.973711342356831322e-01
3.374336962264252726e+00 -5.542392353331701216e+00 -9.975762986948584210e-01
3.371180832532004956e+00 -5.540198815044367286e+00 -9.970250971569569742e-01
3.350586926871129911e+00 -5.549798600527697801e+00 -9.966153897701974795e-01
3.025432992501128293e+00 -5.728370685739865742e+00 -9.960572562630688465e-01
2.934710605194439381e+00 -5.847731684795085982e+00 -1.006235945068173487e+00
2.952244430270488440e+00 -5.840765200295849446e+00 -1.006497900485327168e+00
2.863076579247501474e+00 -5.879019512333288233e+00 -1.005630029852920604e+00
2.948840068394571912e+00 -5.841927688501608706e+00 -1.006415807843066723e+00
2.873433567531646471e+00 -5.873962562971959400e+00 -1.005630029852920604e+00
2.912344300352120996e+00 -5.858163768291888118e+00 -1.006155684422819663e+00
3.875984911974125202e-01 -6.216637184773300184e+00 -9.580215353893374308e-01
5.566301218393875372e-01 -6.208178525624280297e+00 -9.592916880499909871e-01
4.148610515080380923e-02 -6.255932339951955967e+00 -9.603543304240607092e-01
8.384569341107069862e-01 -6.178606983182036494e+00 -9.579366290092098390e-01
9.021417130402864526e-02 -6.242901617437004447e+00 -9.583424307192643932e-01
5.496895859153304587e-01 -6.208870180717613430e+00 -9.593168415848040143e-01
1.265230561609814175e-01 2.686248864500444089e+00 -4.696701284338734572e-01
1.254371048776763975e-01 2.686515336358942019e+00 -4.697114993878525047e-01
1.297762321295735377e-01 2.686282438159962371e+00 -4.697068648360673282e-01
1.450643372540045828e-01 2.688048244538348008e+00 -4.701900978748769777e-01
1.676060219712242616e-01 2.692322459706490534e+00 -4.712498279741865193e-01
1.497855390013441146e-01 2.689712014453311095e+00 -4.705553597532570742e-01
1.712261220961491803e-01 2.692314752194046257e+00 -4.712905871097068933e-01
1.470281340614109644e-01 2.687569853598109848e+00 -4.701237860524538625e-01
8.158393445447306158e-01 8.399706099422704852e+00 -1.562445064767070013e+00
1.217834265110648850e+00 8.285542036257787402e+00 -1.551427706216013780e+00
8.876868619443410990e-01 8.424115812390787994e+00 -1.568414004212587143e+00
9.234886564312535517e-01 8.432616520592276288e+00 -1.570739553302120672e+00
1.503285246287023647e+00 8.167931081033440677e+00 -1.536895010308477971e+00
1.503605823180687917e+00 8.228873285312293007e+00 -1.548325528132239226e+00
1.502546128321732066e+00 8.169200786323385088e+00 -1.537107438429462070e+00
1.543073140168698565e+00 8.200167561520951054e+00 -1.544307792625360776e+00
1.513899388433796123e+00 8.175855230378571648e+00 -1.538745924917502172e+00
1.567458502487302230e+00 8.221020487547965772e+00 -1.549057895031436649e+00
1.671414542260186931e+00 8.274890768595255963e+00 -1.562913168984777279e+00
1.591890869708852740e+00 8.247508505404857360e+00 -1.554882517950204601e+00
1.729096434500362545e+00 8.252204675833910485e+00 -1.560895254980503744e+00
1.672743763359347380e+00 8.274352454715712568e+00 -1.562862400085983428e+00
1.723409195689610263e+00 8.254428551937502689e+00 -1.561090671653037498e+00
1.655826084897408457e+00 8.281370789223357676e+00 -1.563554424416179423e+00
1.994441208446988911e+00 8.331285204472745676e+00 -1.586628704642578214e+00
1.974089769009916395e+00 8.311068308704482988e+00 -1.581975008931929549e+00
2.009395815589161138e+00 8.230823232340380713e+00 -1.568720329816917891e+00
1.972120593669915767e+00 8.327186374219325060e+00 -1.584867549094932215e+00
1.997739305901991225e+00 8.221487343891686450e+00 -1.566469820745497232e+00
2.106110330704520806e+00 8.213122269572906475e+00 -1.569941088887179870e+00
2.248557891690639465e+00 8.207654996155886451e+00 -1.575852501652991844e+00
2.072872994639082478e+00 8.245930877435263540e+00 -1.574422785384848922e+00
2.218850080232883659e+00 8.270046593084693143e+00 -1.585814559392155321e+00
2.149359950058759683e+00 8.193391657017919272e+00 -1.568350163474301784e+00
2.228105432860465474e+00 8.254007357847950033e+00 -1.583333351380957987e+00
2.196519333802935403e+00 8.194987533495945442e+00 -1.570967230641885592e+00
2.299328629124248735e+00 8.195508662626112439e+00 -1.576258149679756304e+00
2.258739958667516312e+00 8.248799643860053266e+00 -1.583983676032318710e+00
1.763736425738887448e+00 5.843661527107242293e+00 -1.159202684655021853e+00
1.729354665273608038e+00 5.746330961917061941e+00 -1.332086799852844505e+00
2.689266342941972088e+00 8.002051575016366769e+00 -1.562910182703934892e+00
2.630571725383685333e+00 7.984645305022148420e+00 -1.556236748619333810e+00
2.747945163716548844e+00 8.007648031698728630e+00 -1.567478653259946286e+00
2.815764500554540195e+00 7.949162462452821210e+00 -1.561232785110562959e+00
2.750780947193013581e+00 8.005443737122806880e+00 -1.567258539385013139e+00
2.816820850664658149e+00 7.948816492739368300e+00 -1.561231652721047469e+00
2.806351847787504905e+00 7.958569466994059205e+00 -1.562319149077260327e+00
2.804028769625511952e+00 7.959169229735184814e+00 -1.562294226615914994e+00
3.020520995614068394e+00 7.821727831548001220e+00 -1.552041481368487297e+00
2.947658038759902510e+00 7.805878309146168093e+00 -1.544276734604783430e+00
3.078952098530892467e+00 7.823213670217958438e+00 -1.556319850278628625e+00
3.146459077289915029e+00 7.826933739305364846e+00 -1.561729609544298292e+00
3.066169014388894887e+00 7.826636093166858821e+00 -1.556034383504809826e+00
3.163176087207617115e+00 7.825670992454663910e+00 -1.562678205602165082e+00
3.131240870518763764e+00 7.819912376217163619e+00 -1.559403045108241015e+00
3.232027422364509572e+00 7.858451665879341519e+00 -1.573387128811204239e+00
3.276424369954035409e+00 7.866536493872444247e+00 -1.578038015486404211e+00
3.228870797492477962e+00 7.856887162876670772e+00 -1.572885121989114676e+00
3.330463107387186206e+00 7.873085829962784388e+00 -1.583160899322708204e+00
3.275177672750563485e+00 7.866368752285169741e+00 -1.577917678745002661e+00
3.355675134125751580e+00 7.875920575135942236e+00 -1.585522480952123336e+00
3.333199892422945787e+00 7.873123082326431543e+00 -1.583382323872675412e+00
3.430035294773472909e+00 7.757186631670030863e+00 -1.570454798231174065e+00
3.407435733493387797e+00 7.806476760041862306e+00 -1.577324363241498384e+00
3.441392851695888044e+00 7.658016228308335727e+00 -1.554119879400443827e+00
3.496881609795371215e+00 7.650375774863417355e+00 -1.557175368579015062e+00
3.461104320449935212e+00 7.622439995401997237e+00 -1.549501557076194302e+00
3.490618837521256790e+00 7.620241780372080775e+00 -1.551450604488991303e+00
3.496990039861811006e+00 7.622843472870757253e+00 -1.552405264536367291e+00
3.517483623372805734e+00 7.644738372848210339e+00 -1.557823724405411170e+00
6.011593753717500377e+00 5.435413933790286478e+00 -1.498778172968890265e+00
6.150423086454791743e+00 5.482278477303323072e+00 -1.524368663069850971e+00
6.087523844586736566e+00 5.469358153507256404e+00 -1.513809147671355770e+00
6.041438425282454006e+00 5.449048184036816345e+00 -1.504722554287539982e+00
6.172036047272920101e+00 5.492715339962991550e+00 -1.528743579817062104e+00
6.196779189900026630e+00 5.500064856579623296e+00 -1.533182153356809296e+00
6.414334004614622664e+00 5.568403970086571952e+00 -1.572825099393752923e+00
6.379929010547002122e+00 5.534775683504190802e+00 -1.563723527607811636e+00
6.430586474376795536e+00 5.547653107481209211e+00 -1.572581969039132499e+00
6.365975503931001533e+00 5.563757612080828530e+00 -1.565316794290706026e+00
6.429621447014178592e+00 5.509861086579964429e+00 -1.567757754666329495e+00
6.426252182599480278e+00 5.451839919414357638e+00 -1.560119508165284774e+00
6.428148567250589807e+00 5.481069287341988172e+00 -1.563991870272591234e+00
6.418248736350022021e+00 5.370455932824832246e+00 -1.548989632575361375e+00
6.421876821295088078e+00 5.402778201511456935e+00 -1.553467376580222492e+00
6.409340793784298107e+00 5.306503074016434063e+00 -1.539915357632575255e+00
6.429013196035081812e+00 5.248966232569915569e+00 -1.535857745691439513e+00
6.412338681155794085e+00 5.326651435775839438e+00 -1.542797966050068359e+00
6.437021124795002436e+00 5.239187491022901710e+00 -1.535857745691439513e+00
6.420986953969109123e+00 5.328597905490052078e+00 -1.544312223774266135e+00
6.332500824921335258e+00 5.061630787639628259e+00 -1.499219837239404773e+00
6.430456962377003372e+00 5.228497092850178163e+00 -1.533609629305520361e+00
6.334073545060601163e+00 5.068180511466048976e+00 -1.500230119170642862e+00
6.289738722879482324e+00 4.957419123738627142e+00 -1.480542568012564786e+00
6.277892256111720748e+00 4.890911458977546644e+00 -1.470974863818824696e+00
6.277588145699003697e+00 4.866077473664072173e+00 -1.468054172060706764e+00
6.288272273520111533e+00 4.878121499897358326e+00 -1.471037827606065163e+00
6.295179164134240501e+00 4.838795977007716687e+00 -1.467511732841073169e+00
6.297602742445067570e+00 4.799560159504110857e+00 -1.463343088796041469e+00
6.294753943950976982e+00 4.854266461365198460e+00 -1.469239772812551026e+00
6.324888553877885400e+00 4.740044221278632008e+00 -1.460663060273882818e+00
6.303289528451020196e+00 4.761702829902710654e+00 -1.459853504049604789e+00
6.355866145428797687e+00 4.696201306937162201e+00 -1.460411437756875319e+00
6.316978104435226449e+00 4.746073378513156804e+00 -1.460147418046023660e+00
6.348902641428865401e+00 4.713656584615987910e+00 -1.461320995670303935e+00
6.363633013031280150e+00 4.670773610919167318e+00 -1.458731317767147262e+00
6.375273974494344742e+00 4.612403842294396483e+00 -1.453988420164031403e+00
6.368265286569688932e+00 4.623932670413895885e+00 -1.454190861845752414e+00
6.379435993008331529e+00 4.606108520698849240e+00 -1.453930101288565258e+00
6.405480669241887526e+00 4.571962011825080552e+00 -1.454165651008393345e+00
6.427792855584732123e+00 4.549407484499237597e+00 -1.455133933280942982e+00
6.404423097824148314e+00 4.490126525715995243e+00 -1.445020251724275617e+00
6.418013798338027875e+00 4.458173008899719569e+00 -1.443663688231799469e+00
6.399974189866208363e+00 4.479878622881914296e+00 -1.443208774303896380e+00
6.393198449288695073e+00 4.463162383680072232e+00 -1.440329125518706510e+00
6.447782597900340029e+00 4.410527584351719987e+00 -1.443182902150460745e+00
6.447897770410484064e+00 4.410971476354418996e+00 -1.443248614287142351e+00
6.426663462749899303e+00 4.402797252150984164e+00 -1.439056818770720891e+00
7.276436994574130956e+00 4.788820524984707561e+00 -1.614011410057678342e+00
7.260108852727856110e+00 4.718320235379052541e+00 -1.604099601699195521e+00
7.265878689880562291e+00 4.799849821678765061e+00 -1.613486946905483332e+00
7.268730878623142821e+00 4.700490435265260558e+00 -1.603610796459160603e+00
7.293363511658013110e+00 4.659852884703964193e+00 -1.603374253567001917e+00
7.292137055038287130e+00 4.756771786261212220e+00 -1.613164778345526074e+00
7.306635842898607791e+00 4.651384022080301328e+00 -1.604630429579372297e+00
7.311007778694867731e+00 4.608785832779424219e+00 -1.601005221390025879e+00
7.319591744245001586e+00 4.575881334469293016e+00 -1.599061259731936468e+00
7.310474074839780734e+00 4.627551737114099062e+00 -1.602824155301935560e+00
7.324980329616426644e+00 4.567908907218425796e+00 -1.599129044029225399e+00
7.344209737705995167e+00 4.510013115191664035e+00 -1.596446621605544403e+00
7.344897553916110766e+00 4.502057004357160608e+00 -1.595766201456504607e+00
7.369570161125290397e+00 4.417354421958171962e+00 -1.591453045793214560e+00
7.365080511986956679e+00 4.382452076869340907e+00 -1.587296107165510506e+00
7.370870827155071581e+00 4.318754609307783987e+00 -1.582088018467864954e+00
7.375031530249255951e+00 4.330327822874828314e+00 -1.583884613433176769e+00
7.324490100608805676e+00 4.381539176278060665e+00 -1.580586569269599728e+00
7.381545103318747358e+00 4.307336829384007970e+00 -1.582746384316968014e+00
7.376626011184891141e+00 4.343398974354208519e+00 -1.585407278573044421e+00
7.414153770141635569e+00 4.259850467464849189e+00 -1.583588410371596478e+00
7.395784556780865771e+00 4.290209775576245832e+00 -1.583449883271816461e+00
7.422017725351276241e+00 4.240726381793116673e+00 -1.583077630321128693e+00
7.434351942589846551e+00 4.224897361642993232e+00 -1.583621608900665834e+00
7.487395570165764624e+00 4.206369470743810624e+00 -1.590665448458098874e+00
7.486896016162337020e+00 4.190685793534243864e+00 -1.589126393834390472e+00
7.465994670353170548e+00 4.111030059498872902e+00 -1.578308208838391513e+00
7.472180107101011437e+00 4.161157889691331491e+00 -1.583952660454468253e+00
7.480709814512522371e+00 4.100301695409229730e+00 -1.579778357948527168e+00
7.522030051270955475e+00 4.085221534705908653e+00 -1.585297246521027104e+00
7.559053925061100188e+00 4.082336707687480803e+00 -1.591224633729420690e+00
7.554698864679407322e+00 4.091370364965733586e+00 -1.591331063089937770e+00
7.474864195099486075e+00 3.951985776027814534e+00 -1.565433392191364348e+00
7.485011661626197466e+00 4.009088365322256209e+00 -1.572261093000447474e+00
7.475430561367699234e+00 3.955372050072214041e+00 -1.565827935762680534e+00
7.443820397452000748e+00 3.827232322168540701e+00 -1.549241295872175073e+00
7.447767550690478799e+00 3.839402498050612067e+00 -1.550970437211000030e+00
7.425589908165245667e+00 3.779182167671027770e+00 -1.542003590225195842e+00
7.440156489696152953e+00 3.741352763014993865e+00 -1.541228427026272163e+00
7.441912133298611565e+00 3.821513749691341832e+00 -1.548420487160078851e+00
7.414713678041319866e+00 3.750951890220515672e+00 -1.537725759479401821e+00
7.477204474914908694e+00 3.733031067828152416e+00 -1.546815131462157433e+00
7.415329703866474276e+00 3.604794414381067735e+00 -1.525496322387527304e+00
7.411351392729600640e+00 3.598582125375946461e+00 -1.524319319336546519e+00
7.453217304455304060e+00 3.560740893942077712e+00 -1.528347015204542414e+00
7.401918305849640056e+00 3.613779732146996881e+00 -1.523952062613569858e+00
7.454954159859298102e+00 3.557737095747089739e+00 -1.528397989689142422e+00
7.435741015180051150e+00 3.510021527855410994e+00 -1.521213216754271347e+00
7.413784978837608008e+00 3.477747219669657497e+00 -1.514822965440685953e+00
7.402394093957052945e+00 3.395582436680203653e+00 -1.506312063441190618e+00
7.363304340087630351e+00 3.366338986776810760e+00 -1.497223906367624036e+00
7.351693752240944235e+00 3.399325543154888329e+00 -1.497836225896005624e+00
7.366991314053261242e+00 3.365020648191638042e+00 -1.497757140332420134e+00
7.460583168580835256e+00 3.349735252834210808e+00 -1.512760737349499118e+00
7.542285164261686603e+00 3.322155374416571938e+00 -1.524816585464560559e+00
7.453382281315295010e+00 3.350125537728906533e+00 -1.511542934054892040e+00
7.542306809566749592e+00 3.322138705634012368e+00 -1.524819067117768601e+00
7.612675688164905807e+00 3.310573473970578551e+00 -1.536189952261805880e+00
7.701645670064173999e+00 3.293735030422776600e+00 -1.550448174708954907e+00
7.714206259019083411e+00 3.245743476953737439e+00 -1.549101205246273372e+00
7.729834732065185676e+00 3.239868535093719082e+00 -1.551389475543109908e+00
7.681622636662109649e+00 3.306054352165244126e+00 -1.547869342141442894e+00
7.730270894279466454e+00 3.266894653107429214e+00 -1.553455398747308980e+00
7.696754498841729131e+00 3.151588541879970506e+00 -1.539153908563190232e+00
7.705541045061767846e+00 3.169900825731623240e+00 -1.542025596418119981e+00
7.707688272781594740e+00 3.192410067918474148e+00 -1.544055480625097898e+00
7.830187735078704137e+00 3.111704534902177688e+00 -1.559840506972056673e+00
7.792832557159154128e+00 3.182611056492389068e+00 -1.558314515514775289e+00
7.836831835174170813e+00 3.136864420754110316e+00 -1.562784027040039714e+00
7.800922373799233256e+00 3.045725478837909339e+00 -1.550070718021004046e+00
7.793179470366939476e+00 3.018889755512435880e+00 -1.546846785074380559e+00
7.822456882208476792e+00 3.087061032971466279e+00 -1.556745586531495418e+00
7.812596646903368303e+00 3.003097439459694318e+00 -1.549213807606037108e+00
7.793600218656708378e+00 2.923626159708818228e+00 -1.540473790797116438e+00
7.788210624565302886e+00 2.899731904415125516e+00 -1.537926140264048502e+00
7.792199048013066509e+00 2.921533105444477307e+00 -1.540084197220850326e+00
7.789863973814415310e+00 2.891652701562247518e+00 -1.537687342556179004e+00
7.784576235771059061e+00 2.812824375177278124e+00 -1.531588957564197440e+00
7.784040123104427167e+00 2.810561363146679703e+00 -1.531346270023134171e+00
7.772205277353398500e+00 2.789083880313974806e+00 -1.527848455639674752e+00
7.737725944849884741e+00 2.714719750050072378e+00 -1.516949647924791922e+00
7.750802078594145605e+00 2.760678814609337284e+00 -1.522204174532193921e+00
7.737910849445074568e+00 2.714479902884912477e+00 -1.516967770296948848e+00
7.755967811633722064e+00 2.683266284151451408e+00 -1.518251460906557382e+00
7.722163631344836965e+00 2.575554169268785110e+00 -1.505586332598829014e+00
7.730567345160982207e+00 2.521388580317621031e+00 -1.503878227407986490e+00
7.731034488298245577e+00 2.526398926952589719e+00 -1.504258732614734528e+00
7.716914281947019560e+00 2.581197103883104749e+00 -1.504982273262182479e+00
7.728061627737948136e+00 2.560826395760481322e+00 -1.505767868595821124e+00
7.748258560427489172e+00 2.493687769890188033e+00 -1.505458061528397007e+00
7.737377927051086957e+00 2.510273171337422227e+00 -1.504457240847246968e+00
7.749308554937017313e+00 2.438772674581850985e+00 -1.502482813228109615e+00
7.766402007852573952e+00 2.389125803062328135e+00 -1.502780848736425812e+00
7.752002603054598318e+00 2.447985421260856054e+00 -1.503498035262376575e+00
7.762101279747942506e+00 2.394497736415178046e+00 -1.502301270058714167e+00
7.763871413592217330e+00 2.357463141010800012e+00 -1.500561941915503406e+00
7.729089857524130025e+00 2.261468904824441406e+00 -1.489011599107229467e+00
7.732550548871608420e+00 2.311778842296789094e+00 -1.492352798373124845e+00
7.731749664391874610e+00 2.308856337386874902e+00 -1.492048541082978241e+00
7.725136764360928332e+00 2.244797830094231283e+00 -1.487407197323483699e+00
7.743968773987806031e+00 2.161124912225180772e+00 -1.486488782042215462e+00
7.728243598233126121e+00 2.255929661329277636e+00 -1.488561505535530793e+00
7.740855066870461876e+00 2.165332326918136374e+00 -1.486136485024191600e+00
7.733280881060774270e+00 2.231149559093558388e+00 -1.488190222283309438e+00
7.649991959400882280e+00 2.066667298507719686e+00 -1.464519347314045206e+00
7.686543400449267871e+00 2.029534138277725663e+00 -1.469429548003592378e+00
7.651721810183402361e+00 2.064854034294817620e+00 -1.464747273866971566e+00
7.696446723548999280e+00 2.018950405004891646e+00 -1.470718241536968174e+00
7.689937450145418296e+00 2.025467414368786301e+00 -1.469836163527167949e+00
7.697969675120994282e+00 1.966382863373506984e+00 -1.468494644179883402e+00
7.701552028427980368e+00 1.973163297444087361e+00 -1.469473632301718125e+00
7.680311467693771377e+00 1.934279076301972156e+00 -1.463738065337311989e+00
7.651100531932085502e+00 1.879118732731458019e+00 -1.455819936791404645e+00
7.650808859873072798e+00 1.886980508634481968e+00 -1.456123049470460229e+00
7.669724141040521026e+00 1.859321031530250412e+00 -1.458371149356619600e+00
7.658023104918355806e+00 1.795078497262768247e+00 -1.453374286314449870e+00
7.665827667777874943e+00 1.769616784955670985e+00 -1.453724656173210450e+00
7.655217252858189880e+00 1.790408104257011912e+00 -1.452651185390157140e+00
7.674035816420707867e+00 1.761458019237374995e+00 -1.454897417944458704e+00
7.676861046189944027e+00 1.718287642579091834e+00 -1.453607376039215637e+00
7.658816647709024927e+00 1.683357494348182604e+00 -1.448817131202419173e+00
7.661561476875395904e+00 1.692353577389938080e+00 -1.449694996183671147e+00
7.659342390914424925e+00 1.679937686219433512e+00 -1.448776923146517293e+00
7.667346045505473384e+00 1.601073790274311737e+00 -1.447128318529761204e+00
7.667787455730429080e+00 1.591386115013746050e+00 -1.446830956834623150e+00
7.651439770138766860e+00 1.553896297157473239e+00 -1.442360498067543739e+00
7.641517434740114467e+00 1.510685719897782331e+00 -1.438899063700634029e+00
7.664480853897183366e+00 1.583030985682257086e+00 -1.445896559121173430e+00
7.642130222010769636e+00 1.466699086594380308e+00 -1.437414875320336405e+00
7.641057975528836366e+00 1.505286761268823881e+00 -1.438614277206933689e+00
7.639558158968714707e+00 1.486756611168395636e+00 -1.437651643457505291e+00
7.647288123449069275e+00 1.397296049192236600e+00 -1.435946107902284385e+00
7.646718835719108043e+00 1.411553620912863405e+00 -1.436332943353875180e+00
7.644571852704700632e+00 1.375172835481022204e+00 -1.434691344851961148e+00
7.638225157673451449e+00 1.336387784363109565e+00 -1.432212672926171715e+00
7.640156254429939509e+00 1.350707899491893516e+00 -1.433047057182933459e+00
7.637602065454465183e+00 1.324574899135218420e+00 -1.431714454782071488e+00
7.633230938982594971e+00 1.278946606996512747e+00 -1.429437581642565291e+00
7.626131265020552163e+00 1.238113875672331998e+00 -1.426840465082081177e+00
7.628800632560928996e+00 1.256160708975415430e+00 -1.427897301786964945e+00
7.625508899070577051e+00 1.214161429014792182e+00 -1.426005160111116110e+00
7.630329475224279179e+00 1.242623870080712845e+00 -1.427790564368554893e+00
2.429442689742957295e+00 -1.268604789630767837e-01 -3.508913337047024905e-01
2.406797379664212144e+00 -1.284373073153831646e-01 -3.883388022169069198e-01
2.325269883628217293e+00 -1.919919875353099381e-01 -4.020075863953984641e-01
2.317775851736025849e+00 -1.823956731599796210e-01 -3.790596328107462276e-01
2.309486841984872640e+00 -1.821272922680214623e-01 -3.988686796270596302e-01
2.341771922972415432e+00 -1.944780282987528253e-01 -3.710963329610675321e-01
2.368420148564823080e+00 -3.113063964226882585e-01 -4.125777676975785346e-01
2.387949521865744718e+00 -2.986413241378513828e-01 -3.620875051603988926e-01
2.363983178265275154e+00 -3.132607876560306037e-01 -4.117877604791702062e-01
2.369085648542731182e+00 -3.091318085260683635e-01 -3.877043476791153243e-01
2.278446043576785929e+00 -3.690273863763608442e-01 -3.972494000455161767e-01
2.318544367196517353e+00 -3.622635874965097202e-01 -3.887878773893604367e-01
2.273010419693747064e+00 -3.698503358059289092e-01 -3.962543251269840527e-01
2.304112056363114114e+00 -4.165253785983185630e-01 -3.429017549771657403e-01
2.277459770343696732e+00 -5.099306308050520764e-01 -4.021359595732822423e-01
2.278342896937517459e+00 -5.122663599435148818e-01 -4.024016817593942807e-01
2.271117690771072617e+00 -5.311355898930795183e-01 -4.018583722481832154e-01
2.279213534029399302e+00 -5.074293982453429441e-01 -4.023570952606371209e-01
2.271380019039592302e+00 -5.282412218771666002e-01 -4.017832401863802305e-01
2.278251412480353011e+00 -5.389542129338398269e-01 -4.035199958293189670e-01
2.278650723204049378e+00 -5.393661881063098740e-01 -4.036119061515600070e-01
2.273280201053010430e+00 -5.189088086500742714e-01 -4.017370964879867778e-01
6.730186798947352500e+00 -1.813437507352839928e+00 -1.283219801904787127e+00
6.713937169139839511e+00 -1.813833813178870047e+00 -1.280267698212359750e+00
6.731760725250007127e+00 -1.831455593914907976e+00 -1.284404658692033019e+00
6.732448665090693396e+00 -1.894180893705809332e+00 -1.287728741924208942e+00
6.698217048164741172e+00 -1.855200007477572077e+00 -1.279452067815854965e+00
6.650544576363421001e+00 -1.860047485944669399e+00 -1.270974755455320349e+00
6.749534221076918250e+00 -1.974330359725456674e+00 -1.295030626440617505e+00
6.732281400474310118e+00 -1.904245501936879803e+00 -1.288215709910741191e+00
6.755310831758798429e+00 -1.994140658243303887e+00 -1.297142896891166020e+00
6.750907048458424597e+00 -1.977222198758526561e+00 -1.295434695703688188e+00
6.754969404925656562e+00 -1.995658330663159452e+00 -1.297163006013601239e+00
6.747972098495727877e+00 -2.038882738479018464e+00 -1.298240588141638563e+00
6.751551009647350554e+00 -2.066164200177952992e+00 -1.300401038839207324e+00
6.751174118200176544e+00 -2.078913761468516253e+00 -1.301039377680149878e+00
6.684343774318785236e+00 -2.097035815312620510e+00 -1.289935559501820928e+00
6.697271561236517456e+00 -2.124043700161025505e+00 -1.293826000111555352e+00
6.719015583876499775e+00 -2.185583657481252828e+00 -1.301336861764542441e+00
6.721516494378068529e+00 -2.151638490770268142e+00 -1.299805540318219377e+00
6.722442579317405631e+00 -2.178857416530878499e+00 -1.301561608907635614e+00
6.691764083206469316e+00 -2.210761529348968857e+00 -1.297905848955329455e+00
6.644460772979692287e+00 -2.263449091928781964e+00 -1.292565588899208251e+00
6.699492143282773426e+00 -2.206994630375378907e+00 -1.299074690783928565e+00
6.654670654636031024e+00 -2.230832600734029114e+00 -1.292417476412858646e+00
6.653975496143677226e+00 -2.284877964957845897e+00 -1.295595807728997295e+00
6.666572628909091414e+00 -2.355450107792515624e+00 -1.302268987603790285e+00
6.658342790443271042e+00 -2.290712175203973189e+00 -1.296742048254174273e+00
6.683148663957563684e+00 -2.337465338942959381e+00 -1.304105571846412515e+00
6.617855052953300898e+00 -2.377254600398003959e+00 -1.294939254587462951e+00
6.595908205071602026e+00 -2.383547835608620158e+00 -1.291417690075429059e+00
6.593198229637519781e+00 -2.439986740928621778e+00 -1.294639687587355370e+00
6.581471639709246979e+00 -2.514301968895777950e+00 -1.297503625173712649e+00
6.591178166721915588e+00 -2.425401780166779098e+00 -1.293319301514984865e+00
6.590339572089291664e+00 -2.498839329877486914e+00 -1.298035684275266277e+00
6.497092697138669770e+00 -2.522270143400624054e+00 -1.283085474868399301e+00
6.451285143341148220e+00 -2.548371786180379406e+00 -1.276788790273428287e+00
6.436776673073589805e+00 -2.542274341143980987e+00 -1.273814809276621718e+00
6.448748021968880195e+00 -2.554400677909035799e+00 -1.276760105974179771e+00
6.424242522117241450e+00 -2.569230968489043310e+00 -1.273477249602511741e+00
6.374060361232195326e+00 -2.603619158687151103e+00 -1.267085115250879968e+00
6.424055246817440334e+00 -2.569295214256014148e+00 -1.273448761683610764e+00
6.380861952457219211e+00 -2.589792782619988909e+00 -1.267288901012276314e+00
6.362928892900855615e+00 -2.625375148931395675e+00 -1.266694876501104350e+00
6.352098845580948172e+00 -2.643758671770336299e+00 -1.266134194758907316e+00
6.353818082142349333e+00 -2.690212337415217370e+00 -1.269852549664482355e+00
6.352555770987136974e+00 -2.747028418705466102e+00 -1.273876801530967384e+00
6.359232816382207609e+00 -2.707955555080605148e+00 -1.272112836950203718e+00
6.358603275124435683e+00 -2.717285908131867433e+00 -1.272700754438305548e+00
6.374695654374293419e+00 -2.792606506372454334e+00 -1.281194149002066851e+00
6.393262777681759879e+00 -2.825475345032169461e+00 -1.286937063118763547e+00
6.381251520761540341e+00 -2.803746406095007693e+00 -1.283183597193908287e+00
6.389981511110365275e+00 -2.887130991049649875e+00 -1.291151014588215684e+00
6.395673066984689292e+00 -2.830207331647527802e+00 -1.287720844038107160e+00
6.405281662915133012e+00 -2.881594415638083273e+00 -1.293367538671370109e+00
6.368156943702912187e+00 -2.876653637258221874e+00 -1.286564332623374440e+00
6.385640567755626940e+00 -2.984739457357390879e+00 -1.298147552106611702e+00
6.397140123288025393e+00 -2.948163054936282279e+00 -1.297202530282240085e+00
6.394839209190883444e+00 -2.978659305973767601e+00 -1.299243024225065657e+00
6.356424611113184575e+00 -3.003353118875848438e+00 -1.294626162504385336e+00
6.343644547036873860e+00 -3.011079487305563074e+00 -1.293060721423060722e+00
6.266665702291621010e+00 -3.035624976711318812e+00 -1.281883681538562803e+00
6.243157650126740954e+00 -3.065076175820482973e+00 -1.280323570350682338e+00
6.310694984246772776e+00 -3.025724225894552255e+00 -1.288605456951978034e+00
6.250593523464872625e+00 -3.050724506210610087e+00 -1.280394262803938421e+00
6.234013345977476028e+00 -3.079394680760216385e+00 -1.279964312902855283e+00
6.225541726384641095e+00 -3.088073982402477657e+00 -1.279256516041337388e+00
6.206670833916243524e+00 -3.121050063111746820e+00 -1.278847342011353527e+00
6.207069908303436634e+00 -3.141313984714322327e+00 -1.280649773826697979e+00
6.180423324107544580e+00 -3.164412510569757142e+00 -1.278129217496858150e+00
6.136679048388769431e+00 -3.180123038397473678e+00 -1.272104801956160935e+00
6.199775105990473101e+00 -3.158334474210178211e+00 -1.280875655494864596e+00
6.146299673782290363e+00 -3.175619516570075795e+00 -1.273331973802551476e+00
6.109562979557783713e+00 -3.221127449687101851e+00 -1.271148980928260119e+00
6.117443641008667221e+00 -3.244043980913204450e+00 -1.274506428502845790e+00
6.147604252552781645e+00 -3.179537544609382760e+00 -1.273898768609170284e+00
5.946572082010499471e+00 -3.222526241077395159e+00 -1.243956283639314098e+00
5.997880294680528301e+00 -3.201698790193493682e+00 -1.250686445683621750e+00
5.963174386785459191e+00 -3.256880790018281679e+00 -1.249846493668735681e+00
5.980919858203701089e+00 -3.351902645867985697e+00 -1.261551684801478501e+00
6.002332216680340338e+00 -3.367056813690997075e+00 -1.266499068081733625e+00
5.972097622618619539e+00 -3.272755864830353190e+00 -1.252779523257172345e+00
6.028124597360656090e+00 -3.358397473668676358e+00 -1.269972586073109255e+00
5.978832590675549952e+00 -3.337421106735372955e+00 -1.259868259262095336e+00
5.861464432906448252e+00 -3.387889426153686045e+00 -1.245193831613047752e+00
5.843852687372294241e+00 -3.334938379798753960e+00 -1.237285089791366754e+00
5.866214202706491854e+00 -3.397905324920127423e+00 -1.246925918745466211e+00
5.908399588468862262e+00 -3.393441949465202168e+00 -1.253466559333635599e+00
5.556917609495948263e+00 -3.275723177067423997e+00 -1.184467065236506800e+00
5.453402562605365489e+00 -3.331790757006421355e+00 -1.173092632282711101e+00
5.655457588966716465e+00 -3.370562454804273855e+00 -1.209760449263277193e+00
5.570254868551869798e+00 -3.351773826306279069e+00 -1.194038795536095376e+00
5.497584247062211382e+00 -3.337461194316297508e+00 -1.180811946193115913e+00
5.525253040855748310e+00 -3.325935025751340479e+00 -1.184187105366730774e+00
5.427419609673720835e+00 -3.342260510415200780e+00 -1.169912077605832490e+00
5.485965006664511812e+00 -3.337519996971954672e+00 -1.178931864156605114e+00
5.428670179118102013e+00 -3.341898649425322887e+00 -1.170078165385115332e+00
5.383764324066226514e+00 -3.350418665119098804e+00 -1.163670968728353516e+00
5.257812027763132612e+00 -3.346318681356618363e+00 -1.143001028509139427e+00
5.260886154125097747e+00 -3.363271997209322794e+00 -1.145243990767873754e+00
5.273718474437768755e+00 -3.331381561137609193e+00 -1.144032620371614906e+00
5.246755582698825471e+00 -3.380552924583557495e+00 -1.144740764246599651e+00
5.248905169160590134e+00 -3.362419867095117532e+00 -1.143220332002200079e+00
5.219273006834805884e+00 -3.409984935281664242e+00 -1.143403512664308730e+00
5.180757354874064191e+00 -3.434441254520483433e+00 -1.139843534015873461e+00
5.213351310970324448e+00 -3.413209391892654931e+00 -1.142795389238944415e+00
5.189916615615182138e+00 -3.428225975511711709e+00 -1.140644793959146641e+00
5.171960738302001204e+00 -3.439938465948471080e+00 -1.139024931864129675e+00
5.089772717860647333e+00 -3.461441601233737231e+00 -1.128349718268685242e+00
5.093246595234862895e+00 -3.443046802632863113e+00 -1.126938701983093205e+00
5.082634198403180648e+00 -3.477027749184614436e+00 -1.128895896645264685e+00
5.086221962618903802e+00 -3.473191353635481704e+00 -1.129044848143057500e+00
5.066033044611926606e+00 -3.494598690635914107e+00 -1.128187534125275393e+00
5.070198317510563157e+00 -3.546987352106122149e+00 -1.134516737229958938e+00
5.073072172443768402e+00 -3.589496262670213600e+00 -1.139613379672902438e+00
5.071209896108431536e+00 -3.551524207022085378e+00 -1.135167228508969561e+00
5.064676268213350596e+00 -3.610652502879189818e+00 -1.140640602091150368e+00
5.072803614344056911e+00 -3.579701662684443786e+00 -1.138498543439394162e+00
5.063874238543018436e+00 -3.611325459363488921e+00 -1.140590980987664427e+00
5.069256750009983215e+00 -3.563017582921373272e+00 -1.136124280521388696e+00
5.081644805476869919e+00 -3.697493688501033215e+00 -1.152900254298881544e+00
5.084062897067403775e+00 -3.682077676236561903e+00 -1.151565211905834163e+00
3.985671969115674784e+00 -4.400025024651837313e+00 -1.086835840428663102e+00
3.982937397155236869e+00 -4.408317384473036782e+00 -1.087668772624373004e+00
3.934064170812560768e+00 -4.414479375663575844e+00 -1.082323515787457779e+00
3.976823487694694403e+00 -4.399022785865505547e+00 -1.085566425832393378e+00
3.941855635448723749e+00 -4.407127401237705300e+00 -1.082268412053404738e+00
3.922581407856889690e+00 -4.421654203449754128e+00 -1.081890120674374733e+00
3.880183164291631570e+00 -4.426361833558186021e+00 -1.077231318409246130e+00
3.916328315470160248e+00 -4.422222366687928563e+00 -1.081184669774147400e+00
3.826492112624576336e+00 -4.453908472750990555e+00 -1.074500703639944765e+00
3.861539968335463868e+00 -4.435991364258046410e+00 -1.076282402200660959e+00
3.840420116064332756e+00 -4.446828423336981473e+00 -1.075208274733821412e+00
3.786901290125163300e+00 -4.454407357610869589e+00 -1.069685357153798089e+00
3.753034089888577007e+00 -4.473245382426902061e+00 -1.068267496131539929e+00
3.772604897671867352e+00 -4.452067108870683576e+00 -1.067586424822130509e+00
3.748109090632501417e+00 -4.486748601291740357e+00 -1.069630441137268795e+00
3.722995881277823216e+00 -4.488767985610343736e+00 -1.066876231376886919e+00
3.679388950190554120e+00 -4.513580252082732613e+00 -1.065251771110054424e+00
3.700631424056098684e+00 -4.488480297520342610e+00 -1.064120602530235216e+00
3.699920725426204537e+00 -4.488916299513585173e+00 -1.064098798144508473e+00
3.646893217872143378e+00 -4.526971012744766654e+00 -1.063341676007954151e+00
3.622608679261802411e+00 -4.554601832298041053e+00 -1.064556800145441073e+00
3.660515710944681977e+00 -4.522204737817975051e+00 -1.064265796842946088e+00
3.592379365734489571e+00 -4.581525037019725133e+00 -1.065009433149564533e+00
3.638638028380651424e+00 -4.532529755016486028e+00 -1.063181163309281807e+00
3.600041418043950614e+00 -4.575130610568836076e+00 -1.064957293655075965e+00
3.561544881992815714e+00 -4.580901147136679619e+00 -1.061314241432737671e+00
3.504958658120244763e+00 -4.578877582533034563e+00 -1.054438737326059972e+00
3.566867136039102881e+00 -4.581058230108898677e+00 -1.061959376439521652e+00
3.489094311920109437e+00 -4.584306223202114339e+00 -1.053432152196320359e+00
3.539800934055041370e+00 -4.580207160095126184e+00 -1.058676129801075172e+00
3.470495235311108484e+00 -4.594090749285492770e+00 -1.052775081361333909e+00
3.458165423984387310e+00 -4.634167092612961447e+00 -1.057459352006159481e+00
3.438487669825356363e+00 -4.640686127755635937e+00 -1.056225043680102837e+00
3.460471822609300308e+00 -4.625140452127485702e+00 -1.056349910250032886e+00
3.420915716106755156e+00 -4.641907340114268976e+00 -1.054424594102604251e+00
3.464336611982415270e+00 -4.598668427627840671e+00 -1.052768674408923300e+00
3.321549103917317947e+00 -4.621883811073058013e+00 -1.040236679924004370e+00
3.364063719412714537e+00 -4.619406868396835897e+00 -1.044591267795596412e+00
3.326383048938851950e+00 -4.620390641973497026e+00 -1.040544077601426309e+00
3.313238712352343462e+00 -4.623861861813193919e+00 -1.039618856080948950e+00
3.262673785126676496e+00 -4.621981852148015157e+00 -1.033760781241134907e+00
3.306276992942350113e+00 -4.623394003620050263e+00 -1.038778923099700879e+00
3.197978157231636587e+00 -4.637867124227988747e+00 -1.029198934841554669e+00
3.236961892245648897e+00 -4.625633611111560128e+00 -1.031518278993282189e+00
3.198863434745758738e+00 -4.637564001627381138e+00 -1.029247519746386619e+00
3.193357375003559540e+00 -4.636515967690786333e+00 -1.028490191394921149e+00
3.127055654968724507e+00 -4.645506332507436831e+00 -1.022812651174826115e+00
3.144388506352543633e+00 -4.617581539954129788e+00 -1.020263097480294201e+00
3.113768460376531877e+00 -4.663676624524931036e+00 -1.024276534201486566e+00
3.135721311874418049e+00 -4.626877456256546672e+00 -1.020801760429366434e+00
3.111679849919600560e+00 -4.666005224526781348e+00 -1.024424438274365468e+00
3.100231036495801007e+00 -4.719259927759022588e+00 -1.031662457471534067e+00
3.072113731154658467e+00 -4.749449862101952746e+00 -1.033549381151076085e+00
3.100177592512985747e+00 -4.704532958792224662e+00 -1.029319085156634950e+00
3.075758654761541422e+00 -4.748524519247704134e+00 -1.033779148999289577e+00
3.063178321834971296e+00 -4.761493132840201703e+00 -1.034552028808762181e+00
3.047731611663687001e+00 -4.802581025927570302e+00 -1.039551393356624942e+00
3.062082635009783615e+00 -4.768479603665082500e+00 -1.035557622525339339e+00
2.995418122815603823e+00 -4.804961068257392220e+00 -1.034642856567690172e+00
3.024625446112065408e+00 -4.800984339062352113e+00 -1.036948798936542460e+00
2.966378564832397924e+00 -4.817757254480656393e+00 -1.033803440903858784e+00
2.995247317853058533e+00 -4.805005761583182711e+00 -1.034632889533645628e+00
2.962674699171144788e+00 -4.820334593328214012e+00 -1.033851893521700704e+00
2.942214428292325046e+00 -4.859411272114433800e+00 -1.038166228647609213e+00
2.942503016155822770e+00 -4.858266243984677324e+00 -1.038008627812734730e+00
2.898900027684099712e+00 -4.859560482149576366e+00 -1.033949861003850446e+00
2.882445979719256979e+00 -4.852865774224791373e+00 -1.031253370336176145e+00
2.937253994047375194e+00 -4.876504150806332483e+00 -1.040455006439006125e+00
2.861430187366693190e+00 -4.877311598607207976e+00 -1.033225288693563115e+00
2.857045972456002669e+00 -4.882734195591193149e+00 -1.033692873773773391e+00
2.845017580225455589e+00 -4.898789904275813178e+00 -1.035180925271225405e+00
2.832643441784749250e+00 -4.930248409830906731e+00 -1.039181353119410511e+00
2.817900300598691565e+00 -4.991752260333628399e+00 -1.047951373630270133e+00
2.830723311800724229e+00 -4.940678061702136858e+00 -1.040719148353612011e+00
2.815847492572556288e+00 -4.998467927124816690e+00 -1.048870332284439710e+00
2.806952694026935369e+00 -5.008461809166431244e+00 -1.049696239950824950e+00
2.756804063998765209e+00 -4.997190527386823788e+00 -1.043194114982018306e+00
2.791432111603147526e+00 -5.003991052544004781e+00 -1.047518234896273492e+00
2.759983264936966663e+00 -4.996782229193205360e+00 -1.043416984956447635e+00
2.704344999832147600e+00 -4.995469220101139918e+00 -1.038127967737482393e+00
2.668514539873530378e+00 -4.992419057181585629e+00 -1.034391364402380553e+00
2.690326405064716653e+00 -4.992067971557164974e+00 -1.036291277555556167e+00
2.634333046712486581e+00 -5.002781996721162194e+00 -1.033086755819659253e+00
2.680614642977200646e+00 -4.990113510886681425e+00 -1.035087067539037564e+00
2.636756426924415031e+00 -5.001508297234799727e+00 -1.033086755819659253e+00
2.579333223784413764e+00 -5.008555931380204385e+00 -1.029229960546490075e+00
2.556812031172348121e+00 -5.026903516468405719e+00 -1.030385855782542270e+00
2.595441744695903719e+00 -5.010503900319258186e+00 -1.030966255984378188e+00
2.552155056147221934e+00 -5.032204661229644493e+00 -1.030881191892073501e+00
2.614522864863717988e+00 -5.013088235324879349e+00 -1.033070049828152426e+00
2.491750094442735097e+00 -5.096317594606712298e+00 -1.036676849133384204e+00
2.505495872317137440e+00 -5.089211612206099744e+00 -1.036613279838983770e+00
2.428423906140051880e+00 -5.026355949560226577e+00 -1.019450212381039611e+00
2.428870409825244270e+00 -5.081309601977008761e+00 -1.028903323214917398e+00
2.478214574323243546e+00 -5.098344903543193141e+00 -1.035904510400858181e+00
2.428836459106072265e+00 -5.103126270228794503e+00 -1.032638997780037426e+00
2.358188275632018271e+00 -5.066145933914607546e+00 -1.020566647704857388e+00
2.391688858670162343e+00 -5.040706407279015977e+00 -1.018913917164476324e+00
2.337280287754278874e+00 -5.094706076250521853e+00 -1.023826017831215074e+00
2.351063387422760442e+00 -5.081821207614427571e+00 -1.022697954324042868e+00
2.305458373425728347e+00 -5.104448295569278926e+00 -1.023005198651788517e+00
2.335524927434549536e+00 -5.095170963883542292e+00 -1.023767704999538619e+00
2.295105848423347528e+00 -5.109103214960901695e+00 -1.023005198651788517e+00
2.268039468971957184e+00 -5.136648566596189625e+00 -1.025694239090864102e+00
2.231744077852311214e+00 -5.171069745987732169e+00 -1.028925478601428356e+00
2.267057265482062878e+00 -5.138235312179550540e+00 -1.025894512153698424e+00
2.250218228446267066e+00 -5.157486345940961669e+00 -1.027958682535746293e+00
2.214148318407084925e+00 -5.171441067226392185e+00 -1.027673991339876913e+00
2.210275138414083518e+00 -5.171350567353938388e+00 -1.027368739696484123e+00
2.222128645163905514e+00 -5.162073724698643673e+00 -1.026651373688789448e+00
2.943242564568066544e-01 -6.983758773332550129e-01 -1.026374103057724058e-01
2.946991829415278041e-01 -6.979772451915127185e-01 -1.025950513020972010e-01
2.913967537613927905e-01 -7.013605142567644890e-01 -1.029457846140053451e-01
2.849821500973430677e-01 -6.974448815569620486e-01 -1.017934395131528530e-01
2.897408932849693253e-01 -7.006350719919306469e-01 -1.026982077017220690e-01
2.830265048570505537e-01 -7.028522493228419599e-01 -1.026063022816140480e-01
2.827976841320446466e-01 -7.039102780228433387e-01 -1.027764132170250616e-01
2.902225400951315426e-01 -7.019786205537922319e-01 -1.029697593320215016e-01
2.755794323497601228e-01 -7.118036938476748343e-01 -1.036684156346392299e-01
2.825323712139454213e-01 -7.052574716761530471e-01 -1.029949407239974662e-01
2.773343409986230856e-01 -7.131756977743908266e-01 -1.040325085616099071e-01
2.750775429308796594e-01 -7.111472395700036975e-01 -1.035176534937127801e-01
2.808154546242425109e-01 -7.287327381807015003e-01 -1.070306018329601622e-01
2.756317931880405969e-01 -7.151718962923934164e-01 -1.042692378276216941e-01
1.817877933210490182e+00 -5.171800067739157569e+00 -1.000400420719062433e+00
1.809684241522144355e+00 -5.171637922489164652e+00 -9.998669420725460055e-01
1.779521349304388655e+00 -5.167403597578529961e+00 -9.972162899642309508e-01
1.815445877656662432e+00 -5.171438006935050069e+00 -1.000182798867975009e+00
1.765285709851691420e+00 -5.166925312664271353e+00 -9.962523135033196642e-01
