# X Y Z
9.294931434804370340e+00 5.177509387672442287e+00 -1.438290668373857217e+00
9.288656778456111596e+00 5.113009737116879450e+00 -1.433185676764755945e+00
9.300134824635527764e+00 5.065326442903765880e+00 -1.431397619058699000e+00
9.299053709391435163e+00 5.006755540130407134e+00 -1.427393687951171719e+00
9.284192492526997853e+00 4.943586389871772013e+00 -1.421433091456315356e+00
9.275713677424057835e+00 4.857085936635250789e+00 -1.414778491009979433e+00
9.286847277401033551e+00 4.952591927498365187e+00 -1.422347140905802609e+00
9.274720256301032251e+00 4.876734127489537052e+00 -1.415925574250881391e+00
9.266731634997801947e+00 4.793918645479495311e+00 -1.409620563725975995e+00
9.269165934259380180e+00 4.735833009690480822e+00 -1.406230526466004216e+00
9.261253527415462372e+00 4.771204122221318400e+00 -1.407494349621345897e+00
9.278230346397176476e+00 4.722862751418266392e+00 -1.406534380280511032e+00
9.265881641296685345e+00 4.634898370549788815e+00 -1.399495442816828028e+00
9.243010033557435889e+00 4.576583671416270427e+00 -1.393041538654795630e+00
9.269065678199886804e+00 4.642351194027212635e+00 -1.400355328883635009e+00
9.214261928164933835e+00 4.475939253232400716e+00 -1.383297834549158001e+00
9.236155846978698847e+00 4.557844280112798074e+00 -1.391034151372561256e+00
9.214633319838931413e+00 4.477824142918874095e+00 -1.383458830463382361e+00
9.207206521275541178e+00 4.440946311965131343e+00 -1.380292618132251903e+00
9.195268879853419008e+00 4.351290306029599542e+00 -1.373429648090572330e+00
9.193128226585381313e+00 4.378789369228804240e+00 -1.374797268420255403e+00
9.193683365808620778e+00 4.357437681922999850e+00 -1.373594696319638375e+00
9.193551324944866820e+00 4.255145393958601474e+00 -1.367551541828515127e+00
9.205072826574605571e+00 4.300714256289007942e+00 -1.371668846147170440e+00
9.188366167419756536e+00 4.278375122633796046e+00 -1.368275464676926401e+00
9.112775417259777910e+00 4.025203530868400215e+00 -1.344161000662737138e+00
9.113929111002958550e+00 3.964760402260683492e+00 -1.340950609425129780e+00
9.087620695478753063e+00 3.981330983642608068e+00 -1.338501383865597250e+00
9.093450896481083845e+00 3.992808018990759322e+00 -1.339885834915861551e+00
9.096741184514486989e+00 3.947657327131820715e+00 -1.337798757174177844e+00
9.095223730409660590e+00 3.888272736788331851e+00 -1.334341271600491430e+00
9.078965858573802450e+00 3.791112276783995316e+00 -1.327003170153630007e+00
9.097595325384336462e+00 3.898411551874477521e+00 -1.335197817714158353e+00
9.095662746595468917e+00 3.745593877886716605e+00 -1.326726082233003146e+00
9.085102731323463132e+00 3.840699548228859062e+00 -1.330457650253377588e+00
9.093197974599945610e+00 3.750405076969570040e+00 -1.326664658671292463e+00
9.095475728884878208e+00 3.703190465382199204e+00 -1.324469097155572594e+00
9.070797597419437253e+00 3.635891706110521593e+00 -1.317785949205770857e+00
9.086479903002183889e+00 3.681542610147690020e+00 -1.322180119385977015e+00
9.064298643588120541e+00 3.595048432300667951e+00 -1.314845975601689032e+00
9.053424189838247926e+00 3.544684029131829561e+00 -1.310876718778021477e+00
9.066581796305566598e+00 3.478245512425610197e+00 -1.309245028218219309e+00
9.060784240834712122e+00 3.575303096086617227e+00 -1.313379877731708723e+00
9.065125746158226860e+00 3.480322575289687581e+00 -1.309159756035764399e+00
9.072599249804225607e+00 3.417238428692114471e+00 -1.307014640758738855e+00
9.068536531866431716e+00 3.381106533279857551e+00 -1.304721702322415577e+00
9.067797606729948612e+00 3.390704736404918762e+00 -1.305088704415193757e+00
9.072290093507017872e+00 3.333255094421884834e+00 -1.302901307409100040e+00
9.101387578441297421e+00 3.289273105866227898e+00 -1.304610048950101575e+00
9.089698222352929236e+00 3.305473661179574307e+00 -1.303852546289959058e+00
9.103645127039117213e+00 3.263464882403069645e+00 -1.303691017349254189e+00
9.082050550804282807e+00 3.172738648613475654e+00 -1.296658922893926036e+00
9.103331968530437024e+00 3.262497626192600642e+00 -1.303604901585147413e+00
9.079140883278650875e+00 3.117475740478011570e+00 -1.293763852526200075e+00
9.083315824973212216e+00 3.184992492164255840e+00 -1.297386789381319128e+00
9.079323422640284136e+00 3.085383224447316497e+00 -1.292342039073238302e+00
9.067763795319894626e+00 3.026484783805713619e+00 -1.288210120816026594e+00
9.100173950843929660e+00 2.970470115175066095e+00 -1.290045350186138640e+00
9.078581882074601594e+00 3.077412779928219155e+00 -1.291888200200594472e+00
9.090058484564110586e+00 2.983148361573694451e+00 -1.289261029657634339e+00
9.092397773993084797e+00 2.940091976725981215e+00 -1.287716982575119795e+00
9.044367202403064354e+00 2.829560772190640172e+00 -1.276698794297735695e+00
9.088340642450880580e+00 2.931417093134836449e+00 -1.286810703433358904e+00
9.047238339865499412e+00 2.817419128386045912e+00 -1.276577344905627465e+00
9.065698657089360069e+00 2.881603486878474119e+00 -1.281701238650035712e+00
9.071027575092287520e+00 2.794818437660717692e+00 -1.278808839078173776e+00
9.089955689200740707e+00 2.777076261021173220e+00 -1.280594320203304770e+00
8.895545538752358539e+00 2.565994817526491278e+00 -1.246369885863468197e+00
8.875467387162968791e+00 2.463235671195175502e+00 -1.239821006805661430e+00
8.889515510571744272e+00 2.431353735544873551e+00 -1.240487424828774277e+00
8.918003171026438025e+00 2.536544740979721269e+00 -1.248247084309656918e+00
8.912022117166824131e+00 2.455499407321536598e+00 -1.244393330493617889e+00
8.959676290009772615e+00 2.348595173686471860e+00 -1.246942682188088458e+00
8.987392835671508706e+00 2.298742454081552644e+00 -1.248923173514008722e+00
9.012054006065529421e+00 2.260016216888367513e+00 -1.250940059404303417e+00
8.985804950357810128e+00 2.319014092233015578e+00 -1.249407529750614199e+00
9.017110834446759426e+00 2.234654626906968478e+00 -1.250751756078426702e+00
8.991323068442985900e+00 2.268276295571846735e+00 -1.248405252275927912e+00
9.019697231978332397e+00 2.202615574580821800e+00 -1.250037424940299013e+00
9.025063728304347777e+00 2.215555812795651391e+00 -1.251186208006239919e+00
9.028528600891458922e+00 2.139548979937940576e+00 -1.249181647955763363e+00
9.051100216149132294e+00 2.062015971681931514e+00 -1.249795746880386860e+00
9.038295335812284392e+00 2.133794283297916650e+00 -1.250318382561039110e+00
9.042497568503231165e+00 2.019852687130962554e+00 -1.247343002957280289e+00
9.056290935107547568e+00 2.075417301548615701e+00 -1.250915709343753512e+00
9.032265332594814566e+00 1.944603776181339949e+00 -1.243712809729413449e+00
9.043272217607205121e+00 2.025732106584183789e+00 -1.247626141965275215e+00
9.030030855509444621e+00 1.922835363124906660e+00 -1.242774260091056071e+00
9.034279580958054723e+00 1.959121649634224749e+00 -1.244413993906654303e+00
9.028500658747089958e+00 1.876053297441780288e+00 -1.241227041791441721e+00
9.014155186654978280e+00 1.838263371512421473e+00 -1.238220566116442267e+00
9.013878163519896347e+00 1.837605971817941608e+00 -1.238164584415579306e+00
8.986302593167073027e+00 1.780360055153232146e+00 -1.232841024838523536e+00
8.969750337943958485e+00 1.729168421266462641e+00 -1.229218586965747706e+00
8.987384681413702836e+00 1.782356189996183504e+00 -1.233042320740108444e+00
8.976443748947986023e+00 1.690510071411907678e+00 -1.229122272450038800e+00
8.963139359250501315e+00 1.648826550152182158e+00 -1.226250009099017602e+00
8.963694257648473496e+00 1.596033191971378384e+00 -1.225019865106209860e+00
8.971356430511850277e+00 1.673704007568128427e+00 -1.228001564307842131e+00
8.962042599445823043e+00 1.603696271196226375e+00 -1.224981268296409853e+00
8.955135280312289225e+00 1.555882243503968088e+00 -1.222881387436930867e+00
8.925376989529876681e+00 1.514347383172929939e+00 -1.217826515312197655e+00
8.992314918055773987e+00 1.471663599177297943e+00 -1.226026336312250997e+00
8.951865156237229115e+00 1.493716962575240004e+00 -1.220984169451210688e+00
8.985664266097248998e+00 1.450814928083968169e+00 -1.224651264406492635e+00
8.983693779913144439e+00 1.359062275451160984e+00 -1.222410081183064490e+00
8.946487365077976150e+00 1.412294154432454540e+00 -1.218431782539506347e+00
9.021391413295766881e+00 1.301411918460208206e+00 -1.226418291131008420e+00
8.964117051383782453e+00 1.374631771907321109e+00 -1.220049762695399664e+00
9.016143882765758732e+00 1.310619287638531860e+00 -1.225883290029567529e+00
8.952267127990664264e+00 1.377954791218518826e+00 -1.218502654688963460e+00
8.900081998091145863e+00 1.128951262576669334e+00 -1.206500870070337239e+00
8.985506373813274550e+00 1.244524436618977825e+00 -1.220397829407342982e+00
8.861200887792794134e+00 1.069044129879756611e+00 -1.200117456130235905e+00
8.920429210269077203e+00 1.152937648019647154e+00 -1.209729497888155425e+00
8.878484521625033210e+00 1.098706974826388905e+00 -1.203001139147160892e+00
8.832149074037557668e+00 1.028990296713670594e+00 -1.195455153495171841e+00
8.839086582650535817e+00 1.037593565933633721e+00 -1.196550377223977613e+00
8.836572463059551907e+00 1.040927409266512615e+00 -1.196275083680942819e+00
8.839826088379727054e+00 7.812505352327846486e-01 -1.193004215883826991e+00
8.880597125386957558e+00 7.731316019427875164e-01 -1.198570368042263690e+00
8.844671905325046879e+00 8.153581178563980014e-01 -1.194105123438158556e+00
8.896303070657019418e+00 7.355990924940077891e-01 -1.200283595960216276e+00
8.872574602368661800e+00 7.536596668330254323e-01 -1.197211182631301440e+00
8.888357641168090240e+00 7.163963623434140837e-01 -1.198967634111266944e+00
8.824373490162310318e+00 6.196263430418492701e-01 -1.189089957217578153e+00
8.868074528318130589e+00 6.997434285247542407e-01 -1.195976361636404528e+00
8.823855035127909474e+00 5.979745491375763056e-01 -1.188813731044517708e+00
8.830418849686790139e+00 6.675535357310609097e-01 -1.190410339731799771e+00
8.824090147167146014e+00 5.778839870737220163e-01 -1.188661089523916692e+00
8.775443349933507164e+00 5.111682764514855482e-01 -1.181340511911031843e+00
8.777689186099824070e+00 4.893516031012871692e-01 -1.181480751163668019e+00
8.770358389004092814e+00 5.061187567032310319e-01 -1.180593028469072880e+00
8.775693220364333413e+00 4.915690052714686287e-01 -1.181220509253223083e+00
8.782954530872070009e+00 4.269264439860287474e-01 -1.181760644998178567e+00
8.715787881359112532e+00 3.529762654037176262e-01 -1.171979387816551199e+00
8.748919803126275596e+00 4.000053372125307316e-01 -1.176857820424954237e+00
8.712286451552198940e+00 3.002202927256433229e-01 -1.171218889323143442e+00
8.710162418094958170e+00 3.437079835227930813e-01 -1.171144567938908088e+00
8.708242524759494785e+00 3.276460231138322854e-01 -1.170793527938852385e+00
8.729640552144031673e+00 2.585442111873659798e-01 -1.173444428805613615e+00
8.736073166632962739e+00 2.473493019654240122e-01 -1.174291752959949253e+00
8.669178004569824125e+00 1.826881101177902367e-01 -1.164775881354871423e+00
8.640918956836483034e+00 1.386563908202321782e-01 -1.160739172202337688e+00
8.737284704665817969e+00 2.271156971697147475e-01 -1.174380851336649600e+00
8.648434965991761203e+00 1.536611459640871979e-01 -1.161819420405543646e+00
8.676646116409900245e+00 8.632557514166293300e-02 -1.165608278643988527e+00
8.691769192846233949e+00 6.554034294987681752e-02 -1.167681353112021814e+00
8.635131932759870566e+00 1.214804202918342152e-01 -1.159895336881233918e+00
8.671566307772119231e+00 3.504942034938163253e-02 -1.164852971054616049e+00
8.686263478992717779e+00 -1.676836387963610148e-02 -1.166887595097377384e+00
8.693385603291082120e+00 -2.591086059564477045e-02 -1.167878511922489260e+00
8.696514173500565548e+00 4.709412445724858037e-02 -1.168337698549141379e+00
8.590613101363164361e+00 -9.662632386679426144e-02 -1.153668988555725416e+00
8.579130989255189021e+00 -1.573019739319314603e-01 -1.152215766675495523e+00
8.589584670960526580e+00 -1.028953924377978973e-01 -1.153537734411967941e+00
8.573532576746114131e+00 -1.880034086619712386e-01 -1.151505747179895955e+00
8.580184487406009808e+00 -1.560863388291558185e-01 -1.152343407805840103e+00
8.578654532930622523e+00 -1.598608286274894319e-01 -1.152155410702609073e+00
8.547901072258378363e+00 -2.445745920745397983e-01 -1.148164505095454313e+00
8.559641242327488797e+00 -2.020469425582693823e-01 -1.149666514435402354e+00
2.325848966151880415e+00 -3.415773328138900222e-01 -2.866353945043071394e-01
2.326472959378177219e+00 -3.444198101356606978e-01 -2.867819979070776459e-01
2.324430865999127516e+00 -3.464423746359528988e-01 -2.865395606386180183e-01
2.322981505766608556e+00 -3.515880051141913043e-01 -2.864452471061624816e-01
2.324097366447569257e+00 -3.612784600853791162e-01 -2.868039700545225723e-01
2.335038203054175643e+00 -3.786371859372688053e-01 -2.886833981009472860e-01
2.339484219242717877e+00 -3.863023071023340971e-01 -2.894647404519753997e-01
2.335461350043267270e+00 -3.791397645497424640e-01 -2.887525268968095804e-01
2.339134483830710209e+00 -3.841650334372077591e-01 -2.893678854819073387e-01
2.347625703428278587e+00 -4.121402281339630047e-01 -2.911825178616596621e-01
2.348390193503262946e+00 -4.138349577433514392e-01 -2.913273966882176103e-01
2.348068635366266754e+00 -4.124494018024629227e-01 -2.912513554069132704e-01
2.334154257527773613e+00 -4.714937161189768910e-01 -2.908781302873475472e-01
2.353194433379856676e+00 -4.512068271561613386e-01 -2.929321950510951900e-01
2.306383801094376906e+00 -4.895910998453522622e-01 -2.876089124235969297e-01
2.338360218576084559e+00 -4.691948765303736169e-01 -2.913877234063993460e-01
2.298748306845431966e+00 -4.964881052157457120e-01 -2.867728562808354864e-01
2.353512463929200216e+00 -4.610282287106264310e-01 -2.932273279164273605e-01
8.058852245992484953e+00 -2.112058050561504530e+00 -1.117524711827901029e+00
8.054248876725939255e+00 -2.114319360454204322e+00 -1.116994035755783488e+00
8.057694511614927890e+00 -2.113707947868656234e+00 -1.117427870743167073e+00
8.027177097004409845e+00 -2.154647519656570864e+00 -1.114788767642588940e+00
7.927200837619996499e+00 -2.235443119171843573e+00 -1.104373908393140979e+00
7.910030231015276136e+00 -2.315867168822769440e+00 -1.105174542909421742e+00
7.909194309525844346e+00 -2.327645245793399820e+00 -1.105514994382322147e+00
7.924454911587315742e+00 -2.229675753752724088e+00 -1.103787681756007943e+00
7.908464370176759850e+00 -2.331158275234753052e+00 -1.105555996689649101e+00
7.935399779273891951e+00 -2.304265732376912457e+00 -1.108102821832072538e+00
7.908359397727612539e+00 -2.395646099483764946e+00 -1.108110812935731548e+00
7.908190011680761522e+00 -2.329511719353233534e+00 -1.105454167169263036e+00
7.884601355813678936e+00 -2.425739102977778394e+00 -1.106170952614533576e+00
7.841821505782651691e+00 -2.461810401126206305e+00 -1.101983608658261060e+00
7.832922684977530636e+00 -2.488683393167869351e+00 -1.101932554636104067e+00
7.853228466607200531e+00 -2.452306829265356924e+00 -1.103104528280512753e+00
7.831913418915990022e+00 -2.493915605846535932e+00 -1.102019195835965526e+00
7.818524205060923826e+00 -2.527430507799912629e+00 -1.101669540396610580e+00
7.787222266504864265e+00 -2.572646206339592734e+00 -1.099487528006207970e+00
7.824122139334457771e+00 -2.520128760173128590e+00 -1.102095962815281105e+00
7.775087958830951607e+00 -2.595097859935571627e+00 -1.098868857081829464e+00
7.754510889196071233e+00 -2.631406220550033925e+00 -1.097770215236643754e+00
7.766109439373694023e+00 -2.611189719812122778e+00 -1.098396472633040633e+00
7.745388240802293822e+00 -2.647211358429863548e+00 -1.097273449694587288e+00
7.687719641993814967e+00 -2.717884407234357980e+00 -1.092933936079056201e+00
7.717949266236865391e+00 -2.665743003759860841e+00 -1.094509903233334525e+00
7.687175314422766803e+00 -2.721211277994314948e+00 -1.093016105501826596e+00
7.669617092283143478e+00 -2.753784729559625610e+00 -1.092239698398866032e+00
7.642761863622292040e+00 -2.792848441297400175e+00 -1.090579879570292565e+00
7.658326032560031749e+00 -2.769156780129708117e+00 -1.091484810786915283e+00
7.618451465658505839e+00 -2.833531222206809641e+00 -1.089365673192946637e+00
7.639037193548062987e+00 -2.798714987995878811e+00 -1.090373993573656053e+00
7.616530070058886714e+00 -2.837089770883709949e+00 -1.089288291500200900e+00
7.602653385729578162e+00 -2.887651495104013311e+00 -1.089957082128782950e+00
7.597242554822652316e+00 -2.922837027840622159e+00 -1.090998348894184344e+00
7.602680689249205592e+00 -2.886285498155627849e+00 -1.089893225356488582e+00
7.580513192178578663e+00 -2.950376478040807271e+00 -1.090211412685832881e+00
7.572049043940922708e+00 -2.962009798527719617e+00 -1.089702144613925894e+00
7.532075149359410915e+00 -3.037932997813146407e+00 -1.088436273016216482e+00
7.567772620128970118e+00 -2.966413086579808400e+00 -1.089373616671391209e+00
7.534115328498631747e+00 -3.024179382117775372e+00 -1.087987943920073475e+00
7.512710576874992441e+00 -3.061909229095656659e+00 -1.087196419382428614e+00
7.495184160291026743e+00 -3.075927136612141677e+00 -1.085678109593470220e+00
7.481431843434895868e+00 -3.086337377055688780e+00 -1.084459869853861225e+00
7.454585925695704773e+00 -3.104469099172976421e+00 -1.081981808406146106e+00
7.441074891200230468e+00 -3.127152309615909509e+00 -1.081464462206773058e+00
7.428969538350344237e+00 -3.213075399007836452e+00 -1.084599160625211001e+00
7.437114949813558695e+00 -3.116754372323167210e+00 -1.080395246061061743e+00
7.437752410599638431e+00 -3.204291039304356215e+00 -1.085238206758322610e+00
7.438775539994590957e+00 -3.260013892862085427e+00 -1.088453953045557032e+00
7.436894919133589354e+00 -3.288507472719703451e+00 -1.089808148061982118e+00
7.446008773260935243e+00 -3.279835690342818300e+00 -1.090478002649514000e+00
7.390741901263512936e+00 -3.313147262957870876e+00 -1.085339578691061568e+00
7.417197508928270899e+00 -3.298773521108671503e+00 -1.087886723287340374e+00
7.366782750282895975e+00 -3.402568701689058450e+00 -1.087458239997274312e+00
7.390404547327030116e+00 -3.318505952091669098e+00 -1.085603462450560608e+00
7.362006110912355794e+00 -3.411170486231046350e+00 -1.087355839199514840e+00
7.366688073314121787e+00 -3.402737979694198778e+00 -1.087456102719995599e+00
7.362461830188476775e+00 -3.410328954063696738e+00 -1.087363762617553409e+00
7.339799102427165600e+00 -3.480198988221248957e+00 -1.088637109707499162e+00
7.340158437966634253e+00 -3.500005406132891128e+00 -1.089861412611312419e+00
7.348863469517141311e+00 -3.535393289210580381e+00 -1.093078435676023030e+00
7.372512936555978946e+00 -3.629485523225135957e+00 -1.101750953062067051e+00
7.343419708547179958e+00 -3.518419210839112132e+00 -1.091373411228410806e+00
7.350753477962983062e+00 -3.670803696307827213e+00 -1.101593655832988183e+00
7.363369199318838376e+00 -3.584218520110440842e+00 -1.097845264249869279e+00
7.356331075612686732e+00 -3.662613890369063707e+00 -1.101781188790280197e+00
7.337515412533240244e+00 -3.687396325467128033e+00 -1.100982157343492585e+00
7.310612854308161879e+00 -3.717092055592806865e+00 -1.099504130477299668e+00
7.310519894792643747e+00 -3.722008336326029010e+00 -1.099803687690572795e+00
7.311897539886786035e+00 -3.820587117975832836e+00 -1.106254482887702562e+00
7.313060606973992961e+00 -3.765050459549587281e+00 -1.102844976544888889e+00
7.306577165422832643e+00 -3.843668097423889485e+00 -1.107089487189264920e+00
7.312489677704189006e+00 -3.805930011575019645e+00 -1.105387698872607016e+00
7.268357093938218050e+00 -3.914497089074519653e+00 -1.107024741035585125e+00
7.299070605966806902e+00 -3.862015379099814627e+00 -1.107357421812080966e+00
7.280082613692019144e+00 -3.896960840250876412e+00 -1.107309890947580477e+00
7.264119041944429256e+00 -3.924514254798431079e+00 -1.107165489812556913e+00
7.246912413066570302e+00 -3.998662767487364711e+00 -1.110008549775794329e+00
7.265333378159316347e+00 -3.940899554378932912e+00 -1.108401291058172200e+00
7.237349303503065379e+00 -4.006361460772439820e+00 -1.109361953047938165e+00
7.217435951018404516e+00 -4.020600840531368014e+00 -1.107902211078240606e+00
7.157321575449195450e+00 -4.072653603027250213e+00 -1.104174433698525082e+00
7.217907723428270472e+00 -4.020324658954157471e+00 -1.107940663161348649e+00
7.162692235485163650e+00 -4.064369909729334651e+00 -1.104254956099313123e+00
7.146706981340471110e+00 -4.107017806096891377e+00 -1.105264156192746983e+00
7.142937658315958949e+00 -4.158695795253120053e+00 -1.108405253010054992e+00
7.145966275844418014e+00 -4.127274903153736574e+00 -1.106579822278787040e+00
7.143390902600505576e+00 -4.156112199515192174e+00 -1.108278547497796751e+00
7.093690353014847183e+00 -4.207251397160062467e+00 -1.105925117433736116e+00
7.062542643016942456e+00 -4.234901584835506938e+00 -1.104175612161625741e+00
7.122465896185707912e+00 -4.201276994120006769e+00 -1.108941657742175346e+00
7.062485965456387405e+00 -4.222735066016574557e+00 -1.103298287774179709e+00
7.064013218351449908e+00 -4.292750787635864818e+00 -1.108504061689530529e+00
7.061272891424940745e+00 -4.338532174190391721e+00 -1.111493337763239664e+00
7.062923438504163265e+00 -4.276027623047727211e+00 -1.107165925888856650e+00
7.011158539541766821e+00 -4.377471310935589166e+00 -1.108424853244102781e+00
7.020713404589651319e+00 -4.366034447796582896e+00 -1.108706764696863578e+00
7.014090901105383580e+00 -4.373956649061621071e+00 -1.108511014499555358e+00
6.980852154968646417e+00 -4.435756833065750193e+00 -1.109178794080232677e+00
6.985366779951792005e+00 -4.416275650707178535e+00 -1.108257886249133684e+00
6.959620802242757698e+00 -4.469436161298320442e+00 -1.109211680460395089e+00
6.958334766604161281e+00 -4.470367516745231029e+00 -1.109131426168547874e+00
6.881896709338882978e+00 -4.501207902879701628e+00 -1.102549616788405240e+00
6.858597478585870100e+00 -4.548237091053691117e+00 -1.103439742948747693e+00
6.930451489818178601e+00 -4.489970198461101347e+00 -1.107347744525480460e+00
6.847758541949387379e+00 -4.579146645847528063e+00 -1.104567818193655127e+00
6.861381831840009937e+00 -4.523510375615104273e+00 -1.101868360246345935e+00
6.810962780471328415e+00 -4.640518009388080678e+00 -1.105099322886410329e+00
6.843551177505986516e+00 -4.586988372837748074e+00 -1.104688371110112532e+00
6.829968876449654225e+00 -4.611295650904528642e+00 -1.105004474339846610e+00
6.795091747232764767e+00 -4.690226255962253177e+00 -1.107186954319774319e+00
6.778945639454722283e+00 -4.749447095906083049e+00 -1.110040739384447805e+00
6.795913567962095669e+00 -4.686960807663806072e+00 -1.107023973456309429e+00
6.776579925732081122e+00 -4.754115518745741120e+00 -1.110143149599572387e+00
6.781013134066609993e+00 -4.741996247436389034e+00 -1.109684653721772829e+00
6.725742657614145692e+00 -4.805718187485510384e+00 -1.108526094391604655e+00
6.764939028270156030e+00 -4.762394565372173538e+00 -1.109485120667647262e+00
6.731359734743512568e+00 -4.791331039462712660e+00 -1.107998185707814276e+00
6.672048160987530174e+00 -4.856881986090946235e+00 -1.106630513255149717e+00
6.695211522290230199e+00 -4.844067877709173686e+00 -1.108192361997391462e+00
6.727752664938559946e+00 -4.791402617718926393e+00 -1.107600330815944112e+00
4.461775641970536554e+00 -6.051675662083096263e+00 -1.004656919091510670e+00
4.510554810918772972e+00 -6.108794284327856872e+00 -1.015081320910897755e+00
4.455998515677995542e+00 -6.049865141258611523e+00 -1.003977215748275809e+00
4.444840686229681204e+00 -6.055603286550601538e+00 -1.003704247444430653e+00
4.447403729607798617e+00 -6.175094035788349700e+00 -1.017341099512309111e+00
4.411892516593502123e+00 -6.226754433052077431e+00 -1.020313714548217066e+00
4.419970248485887154e+00 -6.174238187874535377e+00 -1.015018094935347781e+00
4.481419574230725011e+00 -6.182323155813085336e+00 -1.020920423703204127e+00
4.381724350329365691e+00 -6.228040855555048161e+00 -1.018042203864292006e+00
4.417371559356626953e+00 -6.185019929451929244e+00 -1.016029002585031593e+00
4.378265880916208275e+00 -6.227812497632856825e+00 -1.017739955794298323e+00
4.365195488215174890e+00 -6.211795958857327271e+00 -1.014884938075696130e+00
4.351969560368088352e+00 -6.381087125802221038e+00 -1.033166855891632707e+00
4.301897440264810690e+00 -6.375385218983017133e+00 -1.028615233471367407e+00
4.367606656420400135e+00 -6.342011225958698262e+00 -1.029914151057449212e+00
4.286597297814704000e+00 -6.384704091793788727e+00 -1.028489866745685433e+00
4.314407937358054390e+00 -6.388265232465630383e+00 -1.031062992849514082e+00
4.229810766942202704e+00 -6.361132785662785949e+00 -1.021387144042601447e+00
4.223369155963546007e+00 -6.358403240449649552e+00 -1.020575123154396691e+00
4.220621707389195620e+00 -6.441719890532491277e+00 -1.030027471796387317e+00
4.205882124837327929e+00 -6.506352202335125234e+00 -1.036436839696125656e+00
4.278841537979540810e+00 -6.392457102150454595e+00 -1.028791351965580914e+00
4.208379004783011190e+00 -6.500552911123359756e+00 -1.035949873664691490e+00
4.203070849049740154e+00 -6.564265805008735910e+00 -1.042994473427929725e+00
4.203045093159246903e+00 -6.563454133460027151e+00 -1.042897575848636293e+00
4.216527216657732779e+00 -6.520494101541880916e+00 -1.038906135310727619e+00
4.136825334439817148e+00 -6.503259089871805898e+00 -1.030912767243384653e+00
4.133971420582875034e+00 -6.479642440387212154e+00 -1.027955763049923421e+00
3.860063503259617335e+00 -6.319120069932178119e+00 -9.888378221657360134e-01
3.749861376850948780e+00 -6.273834091938113033e+00 -9.755555326065907806e-01
3.880925680417114165e+00 -6.320003697163035561e+00 -9.904605131544732544e-01
3.757221892814934794e+00 -6.279584981060124527e+00 -9.767588337259436315e-01
3.668826057015204700e+00 -6.247853220255158213e+00 -9.666916632379062291e-01
3.700454100221978404e+00 -6.323514302059364489e+00 -9.779991079188791181e-01
3.697556583203709391e+00 -6.257537434494219397e+00 -9.698784211819300172e-01
3.676981653951922002e+00 -6.351491969533541671e+00 -9.797019136838972519e-01
3.668947175145448991e+00 -6.399263634902257358e+00 -9.848977449018004870e-01
3.610829766808242969e+00 -6.392455466090449789e+00 -9.800905292988516537e-01
3.680627787090557934e+00 -6.378706905299871721e+00 -9.832270861333143319e-01
3.653301004295729459e+00 -6.421411438500246760e+00 -9.864876102356846532e-01
3.566628449586682237e+00 -6.443165248078678076e+00 -9.832300620972032057e-01
3.618208819808278687e+00 -6.408028251002763298e+00 -9.824698006519398952e-01
3.574361195075529629e+00 -6.427751507605396597e+00 -9.818821024525372643e-01
3.508273636753940661e+00 -6.432518182283465613e+00 -9.780287970191366975e-01
3.454809013363566272e+00 -6.422889558826198275e+00 -9.733154971815641820e-01
3.512470193495677684e+00 -6.433507146516438624e+00 -9.784298797262666048e-01
3.485757984264891363e+00 -6.428393854599422141e+00 -9.760346123515803995e-01
3.442826684165512408e+00 -6.418939249418806448e+00 -9.720444576346916055e-01
3.370454485782570675e+00 -6.392109101286826522e+00 -9.640335519552046817e-01
3.395042877306185591e+00 -6.397993516505751543e+00 -9.663526767944080609e-01
3.362495075813369372e+00 -6.391504951404209933e+00 -9.634448919513527443e-01
3.302945175310630255e+00 -6.376490596974893066e+00 -9.577667886313359080e-01
3.244162074734370460e+00 -6.365460205758120438e+00 -9.526710612657375288e-01
3.310515162216395968e+00 -6.379813049168327588e+00 -9.586602173014781014e-01
3.199775719806607910e+00 -6.377376208636158061e+00 -9.513654620478065871e-01
3.250457391387605366e+00 -6.364277100099545947e+00 -9.529219019647771072e-01
3.217184689097447148e+00 -6.371404839717553337e+00 -9.517094316346729199e-01
3.179396465078435430e+00 -6.397441245582035307e+00 -9.525926887740339133e-01
3.150649656797616327e+00 -6.470055817864645675e+00 -9.598845014136202503e-01
3.174996065732321071e+00 -6.434073561509864092e+00 -9.568841017610811850e-01
3.144139435873412047e+00 -6.472050527495507133e+00 -9.597377409676787208e-01
3.126141842609633681e+00 -6.492305925288131441e+00 -9.611812188482169450e-01
3.096607832246945691e+00 -6.578343595298403734e+00 -9.702118193819466718e-01
3.128405329025960580e+00 -6.478602078037449807e+00 -9.596001517841781236e-01
3.071371018041088252e+00 -6.601304545649377964e+00 -9.716150019132382409e-01
3.106209284165063700e+00 -6.565916322721999876e+00 -9.692193995869141654e-01
3.053858543476485554e+00 -6.611922594410947873e+00 -9.719284701069778043e-01
3.006287881183749899e+00 -6.625666295123441962e+00 -9.709121616883535921e-01
3.040189543112338910e+00 -6.617674133621471277e+00 -9.718594083551856944e-01
2.943250739580573594e+00 -6.601623657659221323e+00 -9.642717497198662890e-01
2.916507495934247185e+00 -6.606002501391931681e+00 -9.633254051062197787e-01
2.948323870273074299e+00 -6.603747193612345967e+00 -9.648298158641828159e-01
2.940453949046951010e+00 -6.601765011435213104e+00 -9.641322150832299931e-01
2.887498325558767842e+00 -6.608342765915300454e+00 -9.620045566376285162e-01
2.814072810988000217e+00 -6.601286076715865647e+00 -9.570651881083938051e-01
2.873770609686403965e+00 -6.600576459446318545e+00 -9.602883117662335266e-01
2.894172808707025091e-01 -6.934738485799726293e-01 -6.442040885096290970e-02
2.904551442672300143e-01 -6.917571617895108549e-01 -6.425673860902637868e-02
2.900976054794898173e-01 -6.930004607374657954e-01 -6.439624407036194376e-02
2.858997705998594929e-01 -6.935542752689153323e-01 -6.424352470531709269e-02
2.871249127422197400e-01 -6.939641510619692921e-01 -6.436096621695358566e-02
2.817077734013296308e-01 -6.920465926902169551e-01 -6.382863325112664299e-02
2.776173745206934051e-01 -6.901018095699946731e-01 -6.336506742698833072e-02
2.740510090494700512e-01 -6.901522386590053237e-01 -6.318886278917558441e-02
2.680708959148148662e-01 -6.885008613799552535e-01 -6.267022997191272482e-02
2.755097623942346918e-01 -6.887385529723401012e-01 -6.308012779684353533e-02
2.735825006365175116e-01 -6.902802570205597288e-01 -6.318156464676277784e-02
2.676886936058661681e-01 -6.910099933632426472e-01 -6.297569608456672630e-02
2.326136388760685902e-01 -6.144967191487955560e-01 -4.678287396938340253e-02
2.361091404567963181e-01 -6.196467159444678519e-01 -7.185399480562330854e-02
2.338910968860757222e+00 -6.826476262867239519e+00 -9.626133266166684299e-01
2.312795259427919525e+00 -6.806181970188891484e+00 -9.587870362652921585e-01
2.318107825583227033e+00 -6.861858100291631679e+00 -9.663351227594159099e-01
2.341647469856309893e+00 -6.809404158302363896e+00 -9.604929214772928159e-01
2.242917229303847737e+00 -6.856654344028407344e+00 -9.623524992436016667e-01
2.289018932012006680e+00 -6.846510770271224899e+00 -9.630263303663689767e-01
2.244739866110700532e+00 -6.855669827271067440e+00 -9.623017716236869079e-01
2.233446216084197911e+00 -6.861152323629001515e+00 -9.625374457328033095e-01
2.132088405755570903e+00 -6.870425951170432199e+00 -9.595008011891832389e-01
2.173831919004220126e+00 -6.876564369203276073e+00 -9.620595382828456277e-01
2.116419112543900916e+00 -6.859505577861543912e+00 -9.574084402561076068e-01
2.035598177206277448e+00 -6.775556871058650898e+00 -9.429780927085354980e-01
2.013450161829705820e+00 -6.755280114264562208e+00 -9.393982730242079748e-01
2.072345987638854581e+00 -6.819467972999053273e+00 -9.502954734893306332e-01
1.892321464641888440e+00 -6.711638904503798742e+00 -9.288871509257112802e-01
1.865296097522102903e+00 -6.784641706729822808e+00 -9.376582246841934642e-01
1.877168506732894260e+00 -6.700590984340486500e+00 -9.268378835064652321e-01
1.862577314419417318e+00 -6.725225414357962173e+00 -9.295923717554117616e-01
1.910026098132017625e+00 -6.746019316512794184e+00 -9.341595127592843273e-01
1.854118504139434576e+00 -6.779161000408996607e+00 -9.365042933826119853e-01
1.691571124042220209e+00 -6.868606185306697753e+00 -9.428507222726014714e-01
1.744482811710124759e+00 -6.838206830369999878e+00 -9.405590097560889706e-01
1.717033753812383434e+00 -6.852122766545130972e+00 -9.414848835449580733e-01
1.672939004143036534e+00 -6.878383654577249651e+00 -9.435676971775758259e-01
1.587840191468766982e+00 -6.963527896682478513e+00 -9.523646005677389725e-01
1.645401150085148867e+00 -6.955621874979811992e+00 -9.531021984786450796e-01
1.610254014385358312e+00 -6.912385578714146384e+00 -9.461339865024934737e-01
1.669070378589560866e+00 -6.880401592811901779e+00 -9.437150581916394776e-01
1.535181809832760536e+00 -6.956879726817278176e+00 -9.498560935976382291e-01
1.597354522589248038e+00 -6.931410383540239195e+00 -9.483083411110801997e-01
1.559114341272752391e+00 -6.958470413505903451e+00 -9.507971625198504695e-01
1.510095663731432225e+00 -6.936080493416937998e+00 -9.462904877860006669e-01
1.518699332161511428e+00 -6.943949840093988080e+00 -9.476125777562629526e-01
1.391117101604610440e+00 -6.889677232530466711e+00 -9.365859881927731667e-01
1.355799797979459820e+00 -6.920656383030138414e+00 -9.398486401368969512e-01
1.301932204946285365e+00 -6.873329502315742801e+00 -9.319786562582101919e-01
1.352642641125824552e+00 -6.924094949389915321e+00 -9.402321449870487680e-01
1.321278658281594520e+00 -6.899564419779571800e+00 -9.360612732227455712e-01
1.261089905232817721e+00 -6.874227275472263976e+00 -9.310588839762213853e-01
1.315294414870409545e+00 -6.893415401922778685e+00 -9.350657711579420939e-01
1.253064013669852983e+00 -6.874775096876005520e+00 -9.309306738614304688e-01
1.242594865987328490e+00 -6.879083539652267376e+00 -9.312623853773303040e-01
1.178257536623813939e+00 -6.897510569119313928e+00 -9.322370417450364100e-01
1.247827446240123317e+00 -6.876574392099947808e+00 -9.310472028000729150e-01
1.207729184674950940e+00 -6.894501503048381608e+00 -9.325212014078017031e-01
1.140929741191754276e+00 -6.899264380598076229e+00 -9.316186035021986056e-01
1.147670176218949623e+00 -6.899081789882122173e+00 -9.317471288943616203e-01
1.118369816725457433e+00 -6.904545657469996378e+00 -9.318348152209982027e-01
1.100753733317967553e+00 -6.917331782286209041e+00 -9.332025516914150831e-01
1.101202527913164309e+00 -6.922573652022244950e+00 -9.339383013645220499e-01
2.533285884113658376e-02 2.739165383256020103e+00 -3.976788531311443164e-01
3.861359220114937013e-02 2.740901255595513231e+00 -3.979910768579915104e-01
5.695438739971293851e-02 2.746631137801903488e+00 -3.989418467488923814e-01
6.622340464268668125e-02 2.747620181615976875e+00 -3.991391937056844030e-01
5.306351819511777312e-02 2.746475564825462179e+00 -3.989054081088960202e-01
6.814902818495646719e-02 2.747534695108726055e+00 -3.991281849192008790e-01
6.854703035434966951e-02 2.747571371157489839e+00 -3.991356234212679044e-01
7.701751982745652647e-02 2.748669244744656570e+00 -3.993453659536271849e-01
9.667058054723762228e-02 2.756584252693303760e+00 -4.007111926571449989e-01
8.782294169025556263e-02 2.754545461443833165e+00 -4.003383771627692655e-01
9.471016431630367716e-02 2.757235897768212762e+00 -4.008037906449731791e-01
1.213339432863402845e-01 2.757310973336126292e+00 -4.009838976675892952e-01
1.383348542841775775e-01 2.762803839620413093e+00 -4.019896006878836414e-01
1.215678312595617483e-01 2.757421216404596809e+00 -4.010031320335649130e-01
1.341531965225433165e-01 2.761807371398550703e+00 -4.017974367480838804e-01
1.568221210622161577e-01 2.767124741258428777e+00 -4.028373874930782361e-01
1.767598036766952485e-01 2.769958929714809504e+00 -4.034810979606276993e-01
1.468943400243748754e-01 2.764828275498350862e+00 -4.023826227811967415e-01
1.902525062355331642e-01 2.768817917410617557e+00 -4.034425637551387056e-01
1.648434096528838266e-01 2.768633261472019935e+00 -4.031522099487900856e-01
1.881565750689776217e-01 2.769082461718197496e+00 -4.034621279708960340e-01
2.060236024176753944e-01 2.764981153709674011e+00 -4.030106281157562753e-01
2.023968954795392072e-01 2.766110343538566330e+00 -4.031480320470320899e-01
2.141234750658087271e-01 2.763990076040922617e+00 -4.029492937130990660e-01
2.159481832292944048e-01 2.765428650880346506e+00 -4.032020299575908018e-01
2.452809723018904986e-01 2.793161637966265598e+00 -4.080123544817424452e-01
2.525575663220581690e-01 2.799716231967265045e+00 -4.091595930005968995e-01
2.339406504809896092e-01 2.780567129748930277e+00 -4.058488160418267654e-01
2.507416378294699544e-01 2.798795335219941727e+00 -4.089861358819448789e-01
2.792873587136305291e-01 2.815369269307634870e+00 -4.120571194662924763e-01
2.869587530048427482e-01 2.820690638502941550e+00 -4.130248991076562182e-01
2.779971358641694645e-01 2.814470386487862186e+00 -4.118937350122291452e-01
2.878274495648549536e-01 2.820447245786114721e+00 -4.130006596141410635e-01
3.168991816443980647e-01 2.820846954577395760e+00 -4.135613374310174728e-01
3.127628193891618391e-01 2.819282490944526653e+00 -4.132395259033481150e-01
3.178114113452419343e-01 2.822582758894721877e+00 -4.138555931105116215e-01
3.012924909590249278e+00 9.673913105412221825e+00 -1.581643786721820488e+00
2.491696151691359162e+00 9.791364560287787455e+00 -1.575902217603531552e+00
2.293405770428565749e+00 8.808044093510188688e+00 -1.372232771391872941e+00
2.270690175429651791e+00 8.765235296680469190e+00 -1.431230865361091675e+00
1.746877446303289450e+00 5.815626073144206210e+00 -8.700603721708912719e-01
1.749472806116869616e+00 5.838310847707385065e+00 -9.301379583145932273e-01
1.687929091908492607e+00 5.663330401421173832e+00 -8.191502811613351476e-01
1.735402610117809719e+00 5.758615857288116757e+00 -8.047109462993651263e-01
3.415006811493509264e+00 9.431102392090625841e+00 -1.565049668019999896e+00
2.638993503897169468e+00 9.915784685814363897e+00 -1.601760794636409413e+00
4.034676287352108481e+00 9.230937781153794930e+00 -1.571231430117605576e+00
3.948303415949339978e+00 9.175014757469909910e+00 -1.557583045915823305e+00
4.070894724640334417e+00 9.238703999878978834e+00 -1.574692112986743942e+00
4.048210151752711816e+00 9.236942446131202189e+00 -1.572972162215765968e+00
4.103213160011143223e+00 9.227537707186092675e+00 -1.575169696634077576e+00
4.054233450621845591e+00 9.187325842676523635e+00 -1.566203992264232792e+00
6.843536512795013849e+00 7.524095823994032983e+00 -1.586687633312014567e+00
6.880525559153982229e+00 7.578833962854114148e+00 -1.597172276398917123e+00
6.843139853066477762e+00 7.449645099224947664e+00 -1.577855271011508798e+00
6.850238576233974364e+00 7.471953837551854605e+00 -1.581267743997791575e+00
6.907796119061670126e+00 7.394915551577535773e+00 -1.578454489397719263e+00
6.846619043806280835e+00 7.434713397815635005e+00 -1.576470883292764968e+00
6.862938552871894693e+00 7.416040102244463306e+00 -1.576047833675640275e+00
6.860873685910840791e+00 7.457813222928068697e+00 -1.580759040759192047e+00
6.867975744891761991e+00 7.280408258153982182e+00 -1.560741324270739749e+00
6.975970826302697603e+00 7.244846687556666609e+00 -1.568562519076319273e+00
7.000141629960718426e+00 7.243751464683605867e+00 -1.571110523218403054e+00
7.060002695807503059e+00 7.244378950621361390e+00 -1.577860190751089187e+00
7.150512813848144411e+00 7.247960017729914384e+00 -1.588411952158629292e+00
7.353181740143511114e+00 7.306313191259798501e+00 -1.617919735886898414e+00
7.568073041954295199e+00 7.366251711479557152e+00 -1.649133017687685276e+00
7.494793508961867801e+00 7.354662545471589041e+00 -1.639450644286979841e+00
7.596448743833983386e+00 7.301944830228943140e+00 -1.645242688335331493e+00
7.512218568556034093e+00 7.360017680116867744e+00 -1.642041662646134492e+00
7.641117986957027597e+00 7.249667815918454217e+00 -1.644633562320498843e+00
7.596310793943318096e+00 7.309600981645079543e+00 -1.646077095194466988e+00
7.641303896478439661e+00 7.249536894415547827e+00 -1.644640652531421221e+00
7.672970890176853409e+00 7.200782633490492302e+00 -1.642974257809262983e+00
7.673375340419244850e+00 7.200017810109192062e+00 -1.642937532137253687e+00
7.729952511615502786e+00 7.158507204700029547e+00 -1.645029239601700111e+00
7.757643150033051604e+00 7.131504289106946004e+00 -1.645357939972219574e+00
7.704747449301527773e+00 7.171754796143073207e+00 -1.643518271740240122e+00
7.772052118326447712e+00 7.111996564055410808e+00 -1.644945458033370667e+00
7.801465935447675193e+00 7.093347724810047161e+00 -1.646412279551479285e+00
7.837750536418250036e+00 7.082216654293162605e+00 -1.649516529667449438e+00
7.765076527503302906e+00 7.136749765886941432e+00 -1.646814538209818046e+00
7.767579412840276198e+00 6.895970928424184798e+00 -1.621272328592031853e+00
7.841604475659313067e+00 7.054037059207419524e+00 -1.646954120543929090e+00
7.754162657846003448e+00 6.756601488203300754e+00 -1.604934599861545408e+00
7.764568759166050604e+00 6.886404787471914979e+00 -1.619897422679445365e+00
7.761063907198059830e+00 6.735745326909341024e+00 -1.603573309448415474e+00
7.747138418514538216e+00 6.777894162874882333e+00 -1.606329893350063598e+00
7.779853496648334144e+00 6.679975241097872996e+00 -1.600019353722266224e+00
7.756869382649591138e+00 6.748977479269526292e+00 -1.604484244339973609e+00
8.574302499587894033e+00 6.892406878656368363e+00 -1.719550473661808576e+00
8.582204941320915381e+00 6.978835835375538643e+00 -1.729220708686198815e+00
8.582726160163797857e+00 6.801028909660589150e+00 -1.711459325378954066e+00
8.583893370647853516e+00 6.729054610510614154e+00 -1.704502210621097413e+00
8.582614386559692221e+00 6.801204625783009661e+00 -1.711462735268378443e+00
8.600266556474791102e+00 6.717323361260842063e+00 -1.705385108921057435e+00
8.600507082722444352e+00 6.641450538932669012e+00 -1.697969004782162283e+00
8.603177320023412733e+00 6.737194705678012596e+00 -1.707708820721517418e+00
8.612340773318013731e+00 6.601672210545315167e+00 -1.695582513147416925e+00
8.608251220945222215e+00 6.729078612597073850e+00 -1.707562992743076880e+00
8.630269584229930402e+00 6.408467450348340755e+00 -1.679260773440696575e+00
8.608199319599515675e+00 6.419348357510875402e+00 -1.677466062350435161e+00
8.673371728210000242e+00 6.376206092957178662e+00 -1.681737632465978738e+00
8.651228146125353291e+00 6.396387839066761671e+00 -1.680801988401487757e+00
8.700825595417322589e+00 6.336278834978514851e+00 -1.681505934328866747e+00
8.711690486367517749e+00 6.325048973600770452e+00 -1.681858997601878736e+00
8.738839208796802538e+00 6.298868069115932222e+00 -1.682924105030106032e+00
8.751092448522419076e+00 6.228904962206289753e+00 -1.678000086280000192e+00
8.751158275788828433e+00 6.219469171562957754e+00 -1.677131511343680437e+00
8.786300535900254616e+00 6.197798728389241063e+00 -1.679720351846929027e+00
8.823795293398902118e+00 6.188191831209171490e+00 -1.683738842982086759e+00
8.793994595088525656e+00 6.235119338111670295e+00 -1.684197738115643661e+00
8.777537510852074121e+00 6.052086634316903968e+00 -1.665230553969989202e+00
8.779729397999144425e+00 6.074948497720559004e+00 -1.667596640833712174e+00
8.785363316949469592e+00 6.034671007732693937e+00 -1.664685918933427544e+00
8.777357975101200083e+00 5.907343969988628096e+00 -1.652164327530952104e+00
8.779653102686802768e+00 5.905304193933338830e+00 -1.652287908180379850e+00
8.785853080822077388e+00 5.941987959949433851e+00 -1.656398404754087839e+00
8.796706447565153297e+00 5.894147979625577349e+00 -1.653564153274750259e+00
8.839917964028611408e+00 5.841075914375214673e+00 -1.654616625533168017e+00
8.845307219525659903e+00 5.800055307758544387e+00 -1.651722328539365181e+00
8.837122067798709679e+00 5.751287961671675220e+00 -1.646365138021836927e+00
8.845568634234858507e+00 5.664142047252981094e+00 -1.639936825483673699e+00
8.830337745780454384e+00 5.715757677374657675e+00 -1.642354262485959726e+00
8.842009926663955355e+00 5.673606519061646480e+00 -1.640276011795363642e+00
8.845338861847496403e+00 5.613905718750262785e+00 -1.635586114571346616e+00
8.837244934116109008e+00 5.495229544701062174e+00 -1.624384774295556388e+00
8.836380377886182913e+00 5.570724692081891583e+00 -1.630677768822212936e+00
8.842018627696308641e+00 5.474402070495314021e+00 -1.623278244947125692e+00
8.835096732911578599e+00 5.537146066068127759e+00 -1.627647789798173150e+00
8.842263767879174452e+00 5.473738522534483231e+00 -1.623255916733895576e+00
8.852545795642202009e+00 5.404830167708249533e+00 -1.618883331129613357e+00
8.848852817335643550e+00 5.274692616698894554e+00 -1.607618431763582434e+00
8.833967554165040426e+00 5.356244251842194437e+00 -1.612304755740980644e+00
8.845495124743910864e+00 5.281701314727929031e+00 -1.607734435741683399e+00
8.816623804243565843e+00 5.220430654335740606e+00 -1.598756599975592163e+00
8.773167278326138074e+00 5.113992061340399076e+00 -1.584135470802858547e+00
8.771939441803988657e+00 5.042995743232762784e+00 -1.578289567957521955e+00
8.771538590365633326e+00 5.127094489012897327e+00 -1.584966376651727238e+00
8.773051560761233603e+00 5.009461991186999086e+00 -1.575754513115372735e+00
8.776290008681424837e+00 5.067397598827332317e+00 -1.580823893040718797e+00
8.714082109452197855e+00 4.918066968521438653e+00 -1.560334850946722973e+00
8.711179385381432994e+00 4.888663244688753018e+00 -1.557622663571988308e+00
8.736664239254576358e+00 4.801899280624418509e+00 -1.554460349387941420e+00
8.719710836141642218e+00 4.883593657074698058e+00 -1.558418655680188891e+00
8.746608324257309164e+00 4.789196224282002312e+00 -1.554862598526244311e+00
8.745843707494804775e+00 4.785299059387416953e+00 -1.554454654188696550e+00
8.735374669640103562e+00 4.738170619081083501e+00 -1.549382363656870654e+00
8.732335452056164016e+00 4.646013765418607555e+00 -1.541972386196666323e+00
8.736086788242113599e+00 4.741338668469257556e+00 -1.549724283296266547e+00
8.731850831397316881e+00 4.651308484599511850e+00 -1.542303522116094783e+00
8.722393304030804373e+00 4.614741076463837466e+00 -1.538223662213776155e+00
8.677106837106585147e+00 4.500102555049236841e+00 -1.523296274038634213e+00
8.718411019584687338e+00 4.606851000969965249e+00 -1.537071486121071473e+00
8.670523181974699511e+00 4.466910601310019935e+00 -1.519914991261992032e+00
8.677506210564073896e+00 4.501979402341748759e+00 -1.523491341246095754e+00
8.716991518225269076e+00 4.438370006782433208e+00 -1.524455446014339577e+00
8.726222643440774362e+00 4.384647703285047271e+00 -1.521895501803007367e+00
8.753686722469277370e+00 4.339769417067953050e+00 -1.522621222507020144e+00
8.729058252340623270e+00 4.419723217084531974e+00 -1.524825041912066581e+00
8.754794349874371662e+00 4.338991259491257857e+00 -1.522724663924536426e+00
8.777672987947884309e+00 4.302496798070492012e+00 -1.523424987845242828e+00
8.768927051100272152e+00 4.230598076563973464e+00 -1.517135932822970990e+00
8.771866422646940720e+00 4.257533930736411065e+00 -1.519433352876552012e+00
8.765416300581138742e+00 4.195976366802798729e+00 -1.514229500683620167e+00
8.775671221611991868e+00 4.282929395657674831e+00 -1.521779280375355814e+00
8.533388694389909546e+00 3.949076289298078191e+00 -1.463813878589502959e+00
8.571115927603258910e+00 4.027495086482478115e+00 -1.474586009309493795e+00
8.537557604693004620e+00 3.959834637831130877e+00 -1.465145258043842880e+00
8.477490424424779292e+00 3.848374395567540240e+00 -1.448995578587973121e+00
8.434156783782015054e+00 3.770908533171528632e+00 -1.437555813906501445e+00
8.432928261184969188e+00 3.756767044047580217e+00 -1.436465300891572427e+00
8.442089755836086340e+00 3.750163668634693082e+00 -1.437370347646134139e+00
8.431518895178575335e+00 3.659233048449153980e+00 -1.429970201380085237e+00
8.450471884247281906e+00 3.620482683070094687e+00 -1.430302217458602865e+00
8.428035027856655148e+00 3.650067030012857039e+00 -1.428872933880419804e+00
8.484294125531887332e+00 3.573237670271693478e+00 -1.432327464301623943e+00
8.433257805725890677e+00 3.637606653042761096e+00 -1.428851053507133928e+00
8.488420535838983483e+00 3.565430935297871251e+00 -1.432450483805357555e+00
8.445963236364709914e+00 3.475360846028475947e+00 -1.420642340513074142e+00
8.473735993768814367e+00 3.451515586393201662e+00 -1.423313883666098789e+00
8.483460095418937641e+00 3.533060324669123897e+00 -1.429719191197242667e+00
8.460673670455223672e+00 3.458362877831436144e+00 -1.421791604268628273e+00
8.500118216297892104e+00 3.503439134567329027e+00 -1.430389456157187711e+00
8.425326159978746787e+00 3.310241228211226794e+00 -1.407726150183428837e+00
8.424678981398084687e+00 3.393606042765199948e+00 -1.412580673323373004e+00
